15.776 33.7823 388.757 0.91343 0.0323156 -0.405711
15.9779 33.8311 389.265 0.896406 0.0350708 -0.441844
16.1741 33.8555 389.611 0.87008 0.151308 -0.469113
18.3496 35.6243 409.789 0.181242 -0.740235 -0.647459
18.5488 35.631 409.848 0.248285 -0.69864 -0.671012
18.7387 35.6396 409.9 0.411098 -0.559237 -0.719898
18.9407 35.656 410.084 0.344519 -0.591603 -0.728912
19.1347 35.6619 410.125 0.377821 -0.536655 -0.754488
19.3294 35.662 410.192 0.549922 -0.497139 -0.671148
19.5324 35.6831 410.332 0.499969 -0.622698 -0.601896
19.7263 35.6873 410.511 0.453643 -0.614958 -0.645007
19.9296 35.7081 410.699 0.506658 -0.505626 -0.698313
20.1296 35.7126 410.851 0.586344 -0.394867 -0.707305
20.3275 35.7314 410.967 0.632234 -0.318422 -0.70632
20.53 35.7477 411.202 0.753088 -0.234728 -0.614622
20.7378 35.7793 411.492 0.757461 -0.165159 -0.631645
20.9384 35.7939 411.652 0.723218 -0.182321 -0.66612
-7.39126 33.7105 385.919 -0.736917 0.0484919 -0.674242
-7.20793 33.6951 385.731 -0.693989 0.0526754 -0.718056
-7.02564 33.6839 385.599 -0.717373 0.0828096 -0.691751
-6.84203 33.6671 385.383 -0.724178 0.152461 -0.672549
-6.65815 33.6451 385.163 -0.643464 0.157559 -0.749086
-6.47559 33.6392 384.98 -0.627036 0.030974 -0.778374
-6.29403 33.6189 384.867 -0.653324 -0.0292182 -0.756514
-6.11225 33.6175 384.723 -0.63473 0.0920416 -0.767233
-5.93044 33.5944 384.574 -0.674298 0.118533 -0.728885
-5.7476 33.5766 384.351 -0.642166 0.0333567 -0.76584
-5.56671 33.5646 384.255 -0.544603 -0.0267247 -0.838268
-5.38565 33.5481 384.123 -0.485922 -0.0955548 -0.868763
-5.20557 33.5437 384.049 -0.500673 -0.0796861 -0.861961
-5.02453 33.5293 383.907 -0.540275 -0.122012 -0.832596
-4.8441 33.523 383.803 -0.577602 -0.171266 -0.79815
-4.66328 33.5111 383.691 -0.574599 -0.0436134 -0.817272
-4.48308 33.5042 383.572 -0.515056 0.0304454 -0.856616
-4.3028 33.4937 383.453 -0.457393 0.00680229 -0.889238
-4.1231 33.4879 383.38 -0.326697 -0.00717973 -0.945102
-3.94356 33.4828 383.328 -0.362412 -0.0248939 -0.931686
-3.76411 33.4753 383.222 -0.452722 -0.0946506 -0.886614
-3.58439 33.4666 383.147 -0.408657 -0.0788813 -0.909273
-3.40491 33.4611 383.083 -0.416985 -0.0679661 -0.906369
-3.22546 33.4513 382.975 -0.454572 -0.127122 -0.881592
-3.04628 33.4448 382.901 -0.37217 -0.0640533 -0.925952
-2.86712 33.4394 382.84 -0.401259 -0.0283563 -0.915526
-2.68808 33.4339 382.753 -0.453641 -0.00867245 -0.891142
-2.50879 33.4238 382.663 -0.381155 0.0351708 -0.923842
-2.32998 33.4203 382.595 -0.317488 0.00625776 -0.948242
-2.15107 33.4127 382.538 -0.347862 -0.0102549 -0.93749
-1.97226 33.4085 382.462 -0.323069 0.0230895 -0.946094
-1.7936 33.4018 382.417 -0.303047 0.0232165 -0.952693
-1.61485 33.3959 382.348 -0.372357 -0.0386029 -0.927286
-1.43622 33.3887 382.265 -0.358602 -0.0736489 -0.93058
-1.25785 33.3876 382.203 -0.301046 -0.0186331 -0.953427
-1.07927 33.3782 382.146 -0.285898 -0.0187604 -0.958076
-0.900877 33.3728 382.101 -0.250395 -0.0321613 -0.96761
-0.722653 33.3724 382.08 -0.204376 0.0431303 -0.977942
-0.544363 33.3691 382.032 -0.234668 -0.00360995 -0.972069
-0.366081 33.3626 381.972 -0.268594 -0.0742015 -0.960391
-0.187887 33.3595 381.933 -0.172819 -0.0415027 -0.984079
-0.00972673 33.3587 381.919 -0.135751 -0.0603416 -0.988904
0.168419 33.3567 381.881 -0.204108 -0.119879 -0.971581
0.346515 33.352 381.83 -0.306072 -0.226201 -0.924745
0.524551 33.3385 381.746 -0.413928 -0.278233 -0.866747
0.702467 33.3347 381.69 -0.33123 -0.162555 -0.929442
0.880352 33.3346 381.639 -0.254288 -0.0310986 -0.966628
1.05837 33.3321 381.596 -0.239291 0.0559521 -0.969334
1.23603 33.333 381.573 -0.0774819 0.185296 -0.979623
1.41419 33.3257 381.573 -0.0322869 0.183447 -0.982499
1.59223 33.3256 381.543 -0.00705328 0.0581964 -0.99828
1.76982 33.3199 381.542 -0.163133 -0.173146 -0.971292
1.94696 33.3053 381.475 -0.41074 -0.383027 -0.827395
2.12472 33.3047 381.305 -0.535904 -0.514597 -0.669326
2.30167 33.2918 381.134 -0.576907 -0.583426 -0.571658
2.47828 33.2758 380.968 -0.533912 -0.627505 -0.566724
2.65445 33.2565 380.781 -0.506176 -0.669948 -0.543097
2.83126 33.2471 380.638 -0.486886 -0.666911 -0.564067
3.00735 33.2282 380.561 -0.43112 -0.634182 -0.641833
3.18455 33.2279 380.42 -0.317942 -0.681062 -0.659597
3.36144 33.2224 380.352 -0.301324 -0.747023 -0.592588
3.53809 33.215 380.267 -0.279292 -0.752526 -0.596406
4.24714 33.2111 380.216 -0.271739 -0.678756 -0.682238
4.42379 33.2069 380.165 -0.127487 -0.687087 -0.715303
4.60128 33.2066 380.161 -0.0337153 -0.726257 -0.686596
4.7786 33.2068 380.164 -0.0246701 -0.754749 -0.65555
5.48745 33.2098 380.192 0.187513 -0.712719 -0.675922
5.66786 33.2202 380.306 0.172137 -0.711262 -0.681524
5.84507 33.2211 380.314 0.109039 -0.701705 -0.704074
6.02265 33.2212 380.315 0.333963 -0.627771 -0.703116
6.20247 33.234 380.386 0.382609 -0.657701 -0.648876
6.38132 33.2411 380.539 0.384987 -0.667875 -0.636968
6.55985 33.2462 380.595 0.389185 -0.691142 -0.608981
6.73945 33.2561 380.708 0.286579 -0.742718 -0.605179
7.46225 33.3114 381.331 0.75067 -0.527915 -0.397241
7.64599 33.3368 381.642 0.667866 -0.655743 -0.352074
7.83276 33.374 382.021 0.523531 -0.747009 -0.409746
8.01441 33.3883 382.203 0.637135 -0.558263 -0.531415
8.19853 33.4159 382.464 0.614462 -0.389802 -0.685923
8.37785 33.4175 382.516 0.300051 -0.289559 -0.908914
8.55844 33.4228 382.589 0.338381 -0.0496133 -0.9397
8.73869 33.4238 382.679 0.338581 0.059979 -0.939024
8.92032 33.4314 382.755 0.404408 0.147191 -0.902657
9.09907 33.4425 382.82 0.652134 0.128474 -0.747138
9.28255 33.4532 382.999 0.701206 -0.0285813 -0.712386
10.0069 33.4918 383.367 0.395144 -0.0781866 -0.915286
10.1865 33.4932 383.402 0.338566 0.0969473 -0.935935
10.3684 33.5033 383.499 0.514855 0.128932 -0.847526
10.5509 33.5156 383.62 0.576878 0.0388594 -0.815905
10.7337 33.5262 383.758 0.566715 0.0141115 -0.823793
10.9162 33.5377 383.866 0.533007 8.55854e-005 -0.846111
11.0986 33.5445 383.988 0.596863 -0.0510678 -0.800717
11.2827 33.5626 384.144 0.618706 -0.0693626 -0.782554
11.4653 33.5724 384.253 0.559955 -0.100666 -0.822384
11.6488 33.5846 384.392 0.562083 -0.0630678 -0.824673
11.8329 33.5986 384.53 0.570007 0.0272359 -0.821188
12.5706 33.6502 385.14 0.64082 0.153214 -0.752246
12.7565 33.6649 385.324 0.634145 0.0669824 -0.770307
12.9414 33.6769 385.461 0.636226 0.0212418 -0.77121
13.127 33.6954 385.626 0.656423 0.0250213 -0.753978
13.3118 33.7079 385.765 0.706898 -0.0010196 -0.707315
13.4999 33.7248 385.998 0.748985 -0.0423417 -0.661233
13.6866 33.7441 386.169 0.656189 -0.191263 -0.729955
13.8711 33.7546 386.285 0.574303 -0.301819 -0.760974
14.0567 33.7674 386.428 0.594063 -0.223237 -0.772822
14.2441 33.784 386.613 0.602338 -0.0102189 -0.798176
14.4309 33.7911 386.789 0.702938 0.154589 -0.694248
14.6193 33.8348 386.976 0.843767 0.0680404 -0.53238
14.8192 33.8617 387.463 0.777325 0.144295 -0.612327
15.0004 33.8628 387.5 0.790241 0.148886 -0.594435
15.1986 33.9023 387.919 0.787227 0.0538949 -0.614304
15.3828 33.9059 388.009 0.768368 0.0562321 -0.637534
15.5785 33.9359 388.351 0.888119 -0.000302614 -0.459613
15.7761 33.9747 388.757 0.915344 0.0221647 -0.402062
15.9789 34.0271 389.264 0.914671 0.0208932 -0.40366
16.18 34.0611 389.736 0.875062 0.165153 -0.454962
18.3405 35.7899 409.496 0.224031 -0.769699 -0.597807
18.5398 35.808 409.679 0.392235 -0.635747 -0.664814
18.7315 35.8088 409.813 0.384264 -0.586172 -0.713262
18.9305 35.8236 409.845 0.394369 -0.606471 -0.69041
19.1296 35.8381 410.005 0.315326 -0.672229 -0.669834
19.3219 35.8397 410.076 0.378923 -0.603629 -0.701462
19.5219 35.8554 410.192 0.561161 -0.535126 -0.631457
19.7152 35.8582 410.423 0.566427 -0.532015 -0.629381
19.921 35.8845 410.5 0.574786 -0.484759 -0.659265
20.1237 35.9145 410.741 0.624346 -0.387714 -0.678137
20.3262 35.9253 410.952 0.660817 -0.281636 -0.695702
20.5275 35.944 411.134 0.783102 -0.203997 -0.587483
20.7378 35.9619 411.49 0.745325 -0.22325 -0.628212
20.9378 35.985 411.629 0.618696 -0.262829 -0.740362
-7.20867 33.8782 385.751 -0.672877 0.0760101 -0.735839
-7.02565 33.8643 385.6 -0.681576 0.0250044 -0.73132
-6.84233 33.8452 385.414 -0.742625 0.036308 -0.668722
-6.65932 33.8302 385.216 -0.711789 0.125186 -0.691147
-6.47707 33.8093 385.052 -0.647685 0.169941 -0.742714
-6.29404 33.7988 384.866 -0.571316 0.0819364 -0.81663
-6.11363 33.7865 384.795 -0.615722 0.076743 -0.784218
-5.93048 33.7732 384.581 -0.723953 0.0740521 -0.685863
-5.74801 33.7531 384.39 -0.670188 0.0876939 -0.736993
-5.56671 33.7363 384.233 -0.58356 0.0654108 -0.809431
-5.38544 33.7321 384.093 -0.476249 0.0140692 -0.879198
-5.20557 33.7264 384.048 -0.530172 0.0731844 -0.844726
-5.02369 33.7138 383.854 -0.578444 -0.0341658 -0.815006
-4.84377 33.7046 383.784 -0.487378 -0.0839086 -0.86915
-4.66363 33.6991 383.67 -0.521417 0.0470355 -0.852005
-4.48339 33.6901 383.572 -0.523576 0.135887 -0.841073
-4.3031 33.6792 383.453 -0.453163 0.162708 -0.876453
-4.12322 33.6652 383.383 -0.334608 0.0898066 -0.938069
-3.94377 33.6531 383.316 -0.425115 -0.0110656 -0.905072
-3.76387 33.6513 383.204 -0.439789 -0.0382034 -0.897288
-3.58439 33.6471 383.147 -0.395367 -0.00927177 -0.918477
-3.40497 33.6363 383.032 -0.464251 -0.0605238 -0.883633
-3.22546 33.6281 382.943 -0.400281 -0.115137 -0.909131
-3.04628 33.6233 382.901 -0.341607 -0.0201762 -0.939626
-2.86712 33.617 382.818 -0.384251 -0.0145132 -0.923115
-2.68808 33.6111 382.753 -0.419384 -0.0344039 -0.907157
-2.50895 33.6034 382.665 -0.406008 0.0233632 -0.913571
-2.33005 33.5968 382.591 -0.332019 0.0188643 -0.943084
-2.15121 33.592 382.538 -0.317014 0.0182046 -0.948246
-1.97238 33.5836 382.484 -0.323112 -0.00370516 -0.946353
-1.79373 33.5813 382.414 -0.360086 -0.0604407 -0.930959
-1.61493 33.57 382.324 -0.401636 -0.096151 -0.910738
-1.43631 33.5662 382.253 -0.308604 -0.0857699 -0.947316
-1.25794 33.5625 382.236 -0.302213 -0.00652851 -0.953218
-1.07929 33.5535 382.146 -0.298074 0.0181563 -0.95437
-0.901026 33.5534 382.116 -0.176782 0.047648 -0.983096
-0.72281 33.5534 382.084 -0.246699 0.089432 -0.964957
-0.544396 33.5446 382 -0.299837 -0.0070762 -0.953964
-0.366171 33.542 381.967 -0.237026 -0.0713736 -0.968878
-0.187982 33.541 381.926 -0.189534 -0.0258223 -0.981535
-0.00980283 33.5342 381.882 -0.194361 -0.122655 -0.973231
0.168301 33.5268 381.837 -0.305679 -0.247542 -0.919393
0.346348 33.5267 381.737 -0.364952 -0.260021 -0.893979
0.52442 33.5213 381.69 -0.313528 -0.176213 -0.933086
0.702389 33.52 381.647 -0.212478 -0.0549579 -0.975619
0.880249 33.5126 381.644 -0.168176 0.0149519 -0.985644
1.05837 33.5092 381.619 -0.108729 0.067069 -0.991806
1.23624 33.5086 381.631 -0.0813117 0.126988 -0.988566
1.41443 33.508 381.582 -0.163219 0.0833381 -0.983064
1.5921 33.5072 381.542 -0.232382 -0.0637046 -0.970536
1.76977 33.5002 381.44 -0.388606 -0.285788 -0.875962
1.94683 33.486 381.305 -0.534582 -0.496341 -0.684008
2.12371 33.4682 381.152 -0.591137 -0.567021 -0.573623
2.30012 33.4481 380.967 -0.614003 -0.552396 -0.56379
2.47705 33.4379 380.78 -0.609498 -0.538035 -0.582263
2.65359 33.4242 380.638 -0.554288 -0.524593 -0.646194
2.83069 33.4188 380.544 -0.481915 -0.484271 -0.730233
3.0071 33.4089 380.419 -0.487676 -0.517283 -0.703272
3.18333 33.3934 380.305 -0.447619 -0.59789 -0.664954
3.35995 33.3857 380.181 -0.34478 -0.631421 -0.694576
3.53683 33.3813 380.129 -0.270988 -0.578285 -0.769514
4.24575 33.3782 380.089 -0.232995 -0.747634 -0.621898
4.42221 33.3717 380.014 -0.174341 -0.751705 -0.636039
4.59895 33.3678 379.968 -0.0888142 -0.750209 -0.655209
4.77546 33.3645 379.927 -0.0311483 -0.775293 -0.630833
5.48598 33.3723 380.011 0.183182 -0.754147 -0.63064
5.66343 33.3732 380.02 0.187253 -0.762603 -0.619171
5.8417 33.3789 380.082 0.149118 -0.800923 -0.579901
6.02049 33.387 380.173 0.224886 -0.761182 -0.608299
6.19926 33.3934 380.242 0.368901 -0.659836 -0.654621
6.37646 33.3947 380.325 0.35194 -0.654737 -0.668923
6.55635 33.4063 380.386 0.353196 -0.6835 -0.638812
6.73565 33.4154 380.515 0.406639 -0.681379 -0.608579
7.4569 33.4657 381.101 0.721933 -0.451577 -0.5243
7.64418 33.5073 381.331 0.731828 -0.554764 -0.395808
7.82559 33.5219 381.619 0.671972 -0.655034 -0.34552
8.01075 33.5515 382.022 0.637423 -0.676479 -0.368875
8.19484 33.5756 382.293 0.554779 -0.697687 -0.45327
8.37704 33.5909 382.498 0.412207 -0.621333 -0.666356
8.55843 33.6039 382.588 0.417468 -0.34556 -0.840422
8.73895 33.6102 382.679 0.417561 -0.151909 -0.895861
8.92137 33.6174 382.756 0.417819 0.103285 -0.90264
9.09909 33.625 382.874 0.524872 0.271329 -0.806777
9.28253 33.639 382.998 0.552846 0.204634 -0.807766
10.0082 33.6755 383.368 0.52523 -0.0848306 -0.846722
10.1889 33.6815 383.466 0.380457 0.0763247 -0.921644
10.3698 33.6881 383.538 0.445149 0.141244 -0.884247
10.5512 33.6956 383.62 0.554721 0.102117 -0.825746
10.7346 33.7095 383.776 0.553756 0.06762 -0.829929
10.9162 33.7173 383.866 0.489915 0.0599508 -0.869706
11.0985 33.7295 383.959 0.582543 -0.00401744 -0.81279
11.2822 33.738 384.112 0.603121 -0.0907554 -0.79247
11.4653 33.7508 384.246 0.584813 -0.0684475 -0.808275
11.6493 33.7656 384.39 0.617128 -0.0024726 -0.786859
11.8332 33.7777 384.545 0.586311 0.0761585 -0.806498
12.573 33.8377 385.198 0.57206 0.240971 -0.784016
12.7569 33.8497 385.311 0.596002 0.155199 -0.787842
12.9414 33.8615 385.446 0.639112 0.00960365 -0.769053
13.127 33.8775 385.625 0.64439 -0.0277204 -0.764194
13.3118 33.8952 385.763 0.686602 -0.0463473 -0.725555
13.4986 33.9125 385.952 0.687764 -0.104115 -0.718429
13.683 33.9157 386.061 0.601167 -0.207663 -0.771669
13.8693 33.9306 386.226 0.634847 -0.175231 -0.752505
14.0567 33.9479 386.418 0.711623 -0.06571 -0.699482
14.2463 33.9747 386.655 0.704127 0.0301932 -0.709432
14.432 33.9823 386.801 0.682756 0.117936 -0.721066
14.6209 33.9982 387.009 0.857168 0.0762215 -0.509366
14.8192 34.0424 387.475 0.795821 -0.0147027 -0.605353
15.0007 34.0455 387.501 0.766191 -0.039195 -0.641417
15.1987 34.0822 387.919 0.792072 0.00311607 -0.610419
15.3819 34.0919 387.979 0.750287 0.0135193 -0.660973
15.5785 34.121 388.351 0.891038 0.0461173 -0.451579
15.7783 34.1611 388.803 0.902528 0.13651 -0.408421
15.9793 34.2022 389.265 0.925243 0.094643 -0.367379
16.1885 34.2613 389.922 0.896091 0.106232 -0.43097
18.3391 35.9816 409.467 0.489518 -0.363006 -0.792842
18.5307 35.9836 409.477 0.502496 -0.444418 -0.741613
18.7311 35.9996 409.665 0.349331 -0.635843 -0.688238
18.9294 36.0054 409.681 0.311543 -0.702637 -0.63972
19.1168 36.0132 409.814 0.357735 -0.714798 -0.600907
19.3156 36.0197 409.876 0.343009 -0.705604 -0.620055
19.5168 36.0377 410.018 0.564673 -0.525614 -0.636297
19.7148 36.0503 410.192 0.597687 -0.54148 -0.591245
19.9207 36.0735 410.465 0.597344 -0.554019 -0.579865
20.1208 36.0763 410.654 0.6677 -0.42224 -0.613099
20.318 36.1006 410.851 0.661245 -0.384753 -0.643988
20.5238 36.1254 411.04 0.773369 -0.253134 -0.581226
20.7321 36.1655 411.369 0.731946 -0.31264 -0.605401
20.9313 36.1663 411.496 0.53971 -0.405097 -0.737976
-7.20886 34.0588 385.756 -0.694447 0.111723 -0.710818
-7.02582 34.0429 385.6 -0.669756 0.0723231 -0.73905
-6.84301 34.0294 385.423 -0.70022 0.0518443 -0.712042
-6.66033 34.0148 385.259 -0.6992 0.096195 -0.708425
-6.47709 33.9963 385.053 -0.698471 0.141512 -0.701508
-6.29436 33.9797 384.867 -0.561894 0.186508 -0.805909
-6.11364 33.9732 384.795 -0.60822 0.126598 -0.783608
-5.93079 33.9542 384.581 -0.72243 0.0438574 -0.690052
-5.74911 33.9408 384.432 -0.688118 0.045802 -0.724152
-5.56686 33.9231 384.234 -0.592314 0.212621 -0.777146
-5.38566 33.9105 384.156 -0.397688 0.267992 -0.87751
-5.20638 33.9094 384.08 -0.598482 0.118473 -0.792328
-5.02417 33.8867 383.845 -0.606369 0.0365735 -0.794342
-4.84411 33.8807 383.794 -0.372371 0.0154954 -0.927955
-4.66431 33.8727 383.739 -0.444176 0.110586 -0.889088
-4.4841 33.8633 383.641 -0.514343 0.0866673 -0.853194
-4.30373 33.8527 383.518 -0.521757 0.0932038 -0.847987
-4.12355 33.8471 383.384 -0.414071 0.165752 -0.895026
-3.94399 33.841 383.316 -0.438536 0.116383 -0.891146
-3.76388 33.829 383.204 -0.398841 0.163445 -0.902337
-3.58467 33.8158 383.158 -0.426608 0.15885 -0.890378
-3.40497 33.815 383.024 -0.504411 0.029848 -0.862947
-3.22551 33.8076 382.944 -0.312424 0.0533765 -0.948442
-3.04667 33.8054 382.917 -0.332498 0.0843461 -0.939325
-2.86713 33.7941 382.813 -0.400281 0.0146035 -0.916276
-2.68808 33.7871 382.753 -0.369113 0.0270854 -0.92899
-2.5092 33.7842 382.681 -0.409251 0.0531065 -0.910875
-2.33011 33.776 382.591 -0.332264 0.0290907 -0.942738
-2.15144 33.7731 382.555 -0.335754 0.0394753 -0.941122
-1.97251 33.7667 382.442 -0.37384 -0.0277627 -0.927077
-1.79374 33.7584 382.391 -0.39164 -0.116644 -0.912695
-1.61507 33.7524 382.298 -0.39031 -0.059102 -0.918784
-1.43644 33.7459 382.25 -0.233992 0.00249191 -0.972235
-1.25807 33.7447 382.214 -0.281262 -0.0275226 -0.959236
-1.07951 33.7369 382.149 -0.27249 -0.00922954 -0.962114
-0.901203 33.7354 382.132 -0.133745 0.0483691 -0.989835
-0.722919 33.7344 382.115 -0.334861 0.0745559 -0.939313
-0.544474 33.7229 381.991 -0.354221 0.0303669 -0.934668
-0.366215 33.7172 381.96 -0.194001 -0.0804801 -0.977695
-0.187995 33.7094 381.926 -0.282635 -0.153345 -0.946891
-0.00987849 33.7077 381.838 -0.320723 -0.173819 -0.931087
0.168195 33.6989 381.776 -0.324653 -0.162707 -0.931733
0.346228 33.6953 381.736 -0.282562 -0.107087 -0.953253
0.524237 33.6925 381.709 -0.189023 -0.038321 -0.981225
0.702331 33.6923 381.687 -0.140742 0.0318908 -0.989532
0.880248 33.6923 381.653 -0.116033 0.0651848 -0.991104
1.05837 33.6913 381.631 -0.0486117 0.0362045 -0.998161
1.23624 33.6931 381.631 -0.124322 -0.0560205 -0.990659
1.41419 33.6912 381.577 -0.305923 -0.162976 -0.938003
1.59161 33.6745 381.492 -0.434343 -0.300931 -0.848991
1.7692 33.668 381.366 -0.578052 -0.459824 -0.674105
1.94632 33.6543 381.146 -0.610203 -0.542562 -0.577304
2.1228 33.6329 380.967 -0.587669 -0.570617 -0.573621
2.29972 33.6211 380.833 -0.601638 -0.546581 -0.582478
2.47642 33.608 380.663 -0.569838 -0.555966 -0.605133
2.65304 33.5957 380.544 -0.47196 -0.591077 -0.654126
2.82971 33.5856 380.428 -0.486893 -0.57869 -0.654258
3.00621 33.5748 380.269 -0.53674 -0.572462 -0.619837
3.18166 33.5541 380.109 -0.442919 -0.614569 -0.652785
3.35882 33.5539 380.068 -0.250942 -0.646506 -0.720457
3.53632 33.5525 380.05 -0.28423 -0.599192 -0.748453
4.2428 33.5327 379.82 -0.193166 -0.828576 -0.525499
4.41962 33.5312 379.8 -0.138499 -0.816708 -0.560184
4.59696 33.5298 379.786 -0.12646 -0.803015 -0.582387
4.77227 33.527 379.749 -0.0693989 -0.819404 -0.568999
4.95072 33.527 379.749 0.0394725 -0.814724 -0.578504
5.6612 33.5378 379.865 0.101477 -0.797739 -0.594403
5.8386 33.5388 379.874 0.218038 -0.777739 -0.58956
6.017 33.5454 379.947 0.318031 -0.787444 -0.528004
6.19669 33.5585 380.094 0.338571 -0.760865 -0.553584
6.37564 33.567 380.188 0.285754 -0.719403 -0.633091
6.55538 33.5733 380.242 0.329505 -0.681432 -0.653511
6.73169 33.5794 380.326 0.553311 -0.557959 -0.618488
7.63837 33.66 381.059 0.654303 -0.597931 -0.462997
7.81631 33.6604 381.401 0.75942 -0.517964 -0.393693
8.0016 33.6916 381.687 0.723513 -0.584597 -0.367117
8.18675 33.7209 382.013 0.646722 -0.677101 -0.351119
8.37471 33.7603 382.352 0.525736 -0.732467 -0.432543
8.55647 33.7736 382.466 0.472712 -0.639019 -0.606793
8.73893 33.7935 382.678 0.561264 -0.413518 -0.716928
8.92225 33.8071 382.843 0.570886 -0.0728097 -0.817795
9.10367 33.8175 382.987 0.473511 0.262152 -0.840871
9.2833 33.8208 383.022 0.321747 0.281833 -0.903908
10.0082 33.856 383.366 0.616849 0.0901731 -0.781899
10.1889 33.8655 383.466 0.445217 -0.0735626 -0.892396
10.3707 33.8711 383.556 0.428187 -0.0270908 -0.903284
10.5523 33.8787 383.656 0.532134 0.0865216 -0.842228
10.735 33.8903 383.783 0.545151 0.0827968 -0.834239
10.9173 33.9001 383.892 0.438853 0.069778 -0.895846
11.0985 33.9064 383.959 0.515958 0.0264216 -0.856206
11.2815 33.9202 384.089 0.615572 -0.00905666 -0.788029
11.4656 33.9323 384.246 0.622476 0.0155855 -0.782484
11.6494 33.9454 384.397 0.651437 0.110932 -0.750549
11.8352 33.9639 384.595 0.640891 0.146959 -0.753433
12.576 34.0257 385.28 0.535452 -0.0117733 -0.844484
12.7573 34.0288 385.334 0.495843 0.102476 -0.862345
12.9416 34.0411 385.461 0.61602 0.00771444 -0.787693
13.1266 34.055 385.599 0.631585 -0.0281875 -0.774794
13.3118 34.0682 385.745 0.653208 -0.047091 -0.755713
13.4978 34.0833 385.911 0.637049 -0.074943 -0.767172
13.683 34.0954 386.06 0.623614 -0.0725808 -0.778356
13.8693 34.1076 386.226 0.686523 0.0583874 -0.72476
14.0567 34.1276 386.418 0.74814 0.0522378 -0.661482
14.2463 34.1506 386.656 0.747397 -0.044652 -0.662875
14.4355 34.1796 386.876 0.683575 0.0896535 -0.724353
14.6209 34.1826 387.009 0.840482 0.0834041 -0.535383
14.8171 34.2186 387.413 0.795902 -0.106644 -0.595959
15.0014 34.2249 387.506 0.783854 -0.0257824 -0.620409
15.1987 34.2594 387.919 0.790418 0.0377536 -0.611404
15.3841 34.2657 388.026 0.745216 0.190801 -0.638944
15.5815 34.3091 388.418 0.889062 0.185641 -0.418457
15.7854 34.3584 388.97 0.896607 0.144859 -0.418463
15.9794 34.3849 389.266 0.923607 0.101738 -0.369594
18.335 36.1642 409.312 0.367904 -0.556503 -0.74495
18.5284 36.1685 409.407 0.288669 -0.623565 -0.726524
18.7218 36.1686 409.408 0.261615 -0.617369 -0.741898
18.9106 36.1731 409.453 0.284524 -0.650936 -0.703795
19.1092 36.1826 409.549 0.418682 -0.61422 -0.668909
19.3085 36.1977 409.715 0.515687 -0.570482 -0.639232
19.5133 36.1983 409.955 0.552489 -0.385082 -0.739235
19.705 36.2232 409.991 0.635858 -0.315188 -0.704515
19.9055 36.2399 410.214 0.710804 -0.416101 -0.567113
20.1112 36.2827 410.499 0.706769 -0.367168 -0.604703
20.3174 36.2878 410.735 0.735117 -0.229242 -0.638005
20.523 36.3158 411.014 0.766596 -0.18519 -0.614845
20.7258 36.3197 411.214 0.748849 -0.205941 -0.629931
20.9312 36.3519 411.494 0.711336 -0.215566 -0.668979
21.1347 36.3771 411.704 0.882237 -0.0406773 -0.469045
-7.02645 34.2265 385.605 -0.656643 0.225692 -0.719641
-6.84402 34.2139 385.465 -0.653122 0.218631 -0.725005
-6.66075 34.1963 385.268 -0.66001 0.19467 -0.725596
-6.47903 34.1859 385.154 -0.681075 0.189868 -0.707168
-6.29581 34.1668 384.94 -0.570862 0.314511 -0.758419
-6.11464 34.1579 384.843 -0.63002 0.249782 -0.735312
-5.93093 34.1364 384.582 -0.720386 0.0738041 -0.689635
-5.74967 34.1246 384.438 -0.592334 0.0653877 -0.803035
-5.56966 34.1201 384.394 -0.579458 0.212084 -0.786924
-5.38696 34.1003 384.163 -0.505099 0.230298 -0.831768
-5.20707 34.0966 384.092 -0.64881 0.076821 -0.757063
-5.02418 34.0686 383.846 -0.608146 0.120137 -0.784682
-4.84443 34.0638 383.805 -0.275229 0.16322 -0.947422
-4.66469 34.0588 383.739 -0.465047 0.0769443 -0.881936
-4.48395 34.0514 383.577 -0.519024 -0.0288285 -0.854274
-4.30424 34.0399 383.529 -0.482222 -0.0421792 -0.875033
-4.125 34.0387 383.445 -0.462539 0.0666502 -0.88409
-3.94455 34.0241 383.353 -0.400881 0.122056 -0.907963
-3.7652 34.0194 383.302 -0.395961 0.207047 -0.894621
-3.58531 34.0093 383.18 -0.510033 0.234199 -0.827658
-3.40503 33.9942 383.025 -0.465458 0.262166 -0.845351
-3.22617 33.9923 382.992 -0.270321 0.246271 -0.93074
-3.04683 33.985 382.918 -0.390617 0.102178 -0.914865
-2.8674 33.9756 382.813 -0.388912 0.0357862 -0.92058
-2.68857 33.9725 382.779 -0.345262 0.0390189 -0.937695
-2.50926 33.9646 382.681 -0.430382 0.0455674 -0.901496
-2.33031 33.9562 382.597 -0.319962 0.0760253 -0.944375
-2.15162 33.953 382.562 -0.392863 0.0683407 -0.917054
-1.9726 33.9421 382.439 -0.448643 0.00447657 -0.8937
-1.79376 33.9358 382.369 -0.34118 -0.0328149 -0.939425
-1.61509 33.9295 382.323 -0.334919 0.012358 -0.942166
-1.43661 33.9266 382.255 -0.260782 0.0629333 -0.963344
-1.25809 33.9219 382.214 -0.261727 0.0151851 -0.965022
-1.07976 33.9214 382.162 -0.216832 0.0112726 -0.976144
-0.901312 33.9158 382.136 -0.103693 0.0212992 -0.994381
-0.722933 33.9148 382.121 -0.37915 -0.110822 -0.918675
-0.544555 33.9016 381.986 -0.443015 -0.182746 -0.877691
-0.366298 33.8971 381.923 -0.265196 -0.135774 -0.954587
-0.188134 33.8971 381.855 -0.305211 -0.149281 -0.940511
-0.00995831 33.897 381.819 -0.312711 -0.144254 -0.938831
0.168148 33.8829 381.775 -0.275597 -0.0218243 -0.961026
0.346227 33.8805 381.719 -0.218536 0.0821949 -0.972361
0.524231 33.877 381.68 -0.12173 0.106376 -0.986847
0.702269 33.877 381.68 -0.110286 0.0543783 -0.992411
0.880294 33.8804 381.658 -0.145915 0.0418825 -0.98841
1.05836 33.8803 381.631 -0.14359 -0.0327183 -0.989096
1.23612 33.8655 381.577 -0.23278 -0.233856 -0.943994
1.41394 33.8609 381.512 -0.417165 -0.413863 -0.80913
1.59139 33.8494 381.366 -0.544717 -0.548027 -0.634784
1.76816 33.8274 381.161 -0.594898 -0.608076 -0.52568
1.94547 33.8186 380.967 -0.587193 -0.623699 -0.51595
2.12206 33.8 380.833 -0.555136 -0.609113 -0.566397
2.29868 33.7846 380.662 -0.570589 -0.603251 -0.55724
2.47496 33.7668 380.477 -0.527881 -0.639164 -0.559295
2.65166 33.7567 380.347 -0.430769 -0.672011 -0.602361
2.8284 33.7484 380.253 -0.480944 -0.631028 -0.608684
3.00467 33.7357 380.108 -0.544529 -0.568938 -0.616278
3.18108 33.726 379.998 -0.439003 -0.573747 -0.691441
3.35745 33.7169 379.894 -0.178627 -0.709752 -0.681429
4.24027 33.6909 379.594 -0.147821 -0.810111 -0.567335
4.41742 33.6904 379.59 -0.0992281 -0.819662 -0.564188
4.59373 33.6796 379.524 -0.188393 -0.698822 -0.69004
4.76957 33.6795 379.469 -0.0686066 -0.748487 -0.659591
4.94713 33.6802 379.495 0.0902784 -0.854218 -0.512017
5.65766 33.6944 379.621 0.0898404 -0.886115 -0.454675
5.83558 33.6958 379.634 0.125817 -0.797582 -0.589944
6.01216 33.6992 379.674 0.42574 -0.655681 -0.62356
6.19298 33.7161 379.86 0.430978 -0.737527 -0.519915
6.37191 33.7251 379.96 0.273801 -0.82971 -0.486431
6.55095 33.7342 380.06 0.31868 -0.817572 -0.479602
6.73138 33.7498 380.234 0.383262 -0.778882 -0.49644
7.63162 33.8084 380.882 0.631565 -0.632332 -0.448645
7.81299 33.8242 381.223 0.692906 -0.602063 -0.396739
7.99802 33.8548 381.401 0.660588 -0.647527 -0.379911
8.18234 33.8811 381.695 0.716721 -0.598196 -0.358431
8.36747 33.9097 382.013 0.658166 -0.659696 -0.362791
8.55544 33.9483 382.366 0.548309 -0.716791 -0.430776
8.73421 33.9496 382.5 0.653352 -0.567619 -0.500939
8.92222 33.9867 382.872 0.693162 -0.425277 -0.58195
9.10432 34.0062 382.995 0.486749 -0.344036 -0.802941
10.0086 34.0297 383.366 0.510496 0.0594019 -0.857826
10.1872 34.0322 383.41 0.480642 -0.109172 -0.870095
10.371 34.0495 383.572 0.520809 -0.0706435 -0.850745
10.5528 34.0593 383.662 0.533969 0.0318505 -0.844904
10.7362 34.0749 383.808 0.537326 0.0183436 -0.843175
10.9173 34.0842 383.892 0.409071 -0.0383337 -0.911697
11.0985 34.0854 383.956 0.492918 -0.0256543 -0.869697
11.2822 34.0972 384.107 0.63138 -0.0164992 -0.775298
11.4665 34.1144 384.266 0.671259 0.100891 -0.734324
11.6524 34.1339 384.481 0.659581 0.189853 -0.727261
11.836 34.1589 384.605 0.648955 0.100132 -0.754209
12.5759 34.211 385.28 0.596299 -0.284367 -0.750709
12.7577 34.2137 385.319 0.426867 -0.190987 -0.883917
12.9414 34.2291 385.446 0.594382 -0.0252996 -0.803785
13.1266 34.2321 385.599 0.620371 -0.0488995 -0.782783
13.3118 34.2456 385.746 0.626541 0.10662 -0.772061
13.4977 34.2634 385.9 0.622938 0.136752 -0.770226
13.6827 34.2878 386.044 0.691602 -0.0523026 -0.720383
13.8728 34.3002 386.306 0.683167 0.0400125 -0.729165
14.0566 34.3144 386.401 0.696837 0.119174 -0.707259
14.2458 34.3195 386.625 0.79428 0.0100248 -0.607469
14.4376 34.352 386.925 0.706157 -0.0298932 -0.707424
14.6215 34.3658 387.009 0.783173 0.0154435 -0.621612
14.8151 34.3856 387.342 0.82204 -0.0390254 -0.568091
15.0059 34.4179 387.604 0.805119 0.0205381 -0.592758
15.1975 34.449 387.867 0.82737 0.0909124 -0.554251
15.3945 34.4778 388.269 0.778997 0.20275 -0.593343
15.583 34.4989 388.436 0.88436 0.163864 -0.437099
15.7874 34.5445 389.01 0.901819 0.0619497 -0.42765
15.9807 34.5699 389.291 0.918072 0.0366544 -0.394714
18.3209 36.3291 409.064 0.245433 -0.769136 -0.590079
18.5219 36.3472 409.256 0.28961 -0.701027 -0.65168
18.7147 36.3505 409.287 0.191641 -0.629939 -0.752629
18.9082 36.3552 409.393 0.314537 -0.50887 -0.801322
19.1047 36.3629 409.434 0.493821 -0.38627 -0.779061
19.3044 36.3728 409.609 0.71471 -0.273255 -0.643833
19.5096 36.4123 409.894 0.590172 -0.365014 -0.720043
19.7043 36.4145 409.971 0.522531 -0.246478 -0.816217
19.9047 36.4148 410.138 0.795128 -0.0851558 -0.600433
20.1152 36.4515 410.52 0.799636 -0.145552 -0.582578
20.3153 36.4834 410.701 0.752363 -0.209137 -0.62467
20.5205 36.5035 410.954 0.741371 -0.314893 -0.59263
20.7257 36.5271 411.202 0.744705 -0.223877 -0.628723
20.9275 36.5619 411.408 0.775538 -0.0805536 -0.62614
21.1366 36.5736 411.722 0.824212 -0.00366625 -0.566269
-7.02869 34.417 385.713 -0.682917 0.090197 -0.724906
-6.84563 34.4014 385.54 -0.665959 0.220653 -0.712608
-6.66234 34.3838 385.345 -0.656857 0.210916 -0.723915
-6.47958 34.3681 385.171 -0.610313 0.246579 -0.752806
-6.29811 34.3585 385.065 -0.607704 0.305066 -0.733233
-6.11507 34.3395 384.854 -0.71928 0.21397 -0.660949
-5.93136 34.313 384.602 -0.707697 0.20698 -0.675518
-5.74994 34.3021 384.471 -0.447833 0.301182 -0.841864
-5.56967 34.298 384.395 -0.590665 0.12974 -0.796418
-5.38736 34.2767 384.201 -0.618754 0.141525 -0.772732
-5.20719 34.2723 384.11 -0.61597 0.159899 -0.771371
-5.02548 34.256 383.929 -0.585164 0.197692 -0.786448
-4.8452 34.2479 383.839 -0.339592 0.242537 -0.908765
-4.66536 34.2446 383.761 -0.536714 0.105616 -0.837128
-4.48437 34.2242 383.596 -0.517498 0.0921694 -0.850706
-4.30425 34.2202 383.529 -0.383072 -0.0125604 -0.923633
-4.125 34.2156 383.429 -0.423406 -0.0566212 -0.904169
-3.94492 34.2054 383.37 -0.328766 0.00225641 -0.944409
-3.76558 34.201 383.322 -0.36931 0.0474184 -0.928096
-3.58628 34.1966 383.255 -0.511844 0.110193 -0.851982
-3.40653 34.1872 383.162 -0.506874 0.199652 -0.838581
-3.2262 34.1714 383.001 -0.407389 0.141406 -0.902241
-3.04718 34.1667 382.942 -0.4474 0.069779 -0.891608
-2.86759 34.1556 382.817 -0.384404 0.0605727 -0.921176
-2.68862 34.1528 382.779 -0.338993 -0.0262656 -0.940422
-2.50942 34.14 382.691 -0.409393 0.0312087 -0.911824
-2.33071 34.1395 382.639 -0.322644 0.118522 -0.93907
-2.15168 34.1336 382.562 -0.448129 0.00572559 -0.893951
-1.9726 34.1207 382.439 -0.476795 -0.0467352 -0.877771
-1.79378 34.1131 382.369 -0.298832 0.0293321 -0.953855
-1.61534 34.1116 382.33 -0.289113 0.0476763 -0.956107
-1.43669 34.1049 382.266 -0.306688 0.0179084 -0.951642
-1.2581 34.0977 382.209 -0.266493 -0.0456235 -0.962757
-1.07979 34.0965 382.162 -0.209437 -0.0629044 -0.975797
-0.901386 34.0931 382.135 -0.241014 -0.0911158 -0.966235
-0.722944 34.0844 382.027 -0.438462 -0.241314 -0.865748
-0.54456 34.0748 381.933 -0.391154 -0.245969 -0.886847
-0.366304 34.0691 381.918 -0.278552 -0.144863 -0.949433
-0.188176 34.0675 381.855 -0.300157 -0.0735862 -0.951047
-0.0100312 34.064 381.799 -0.189958 0.0022641 -0.98179
0.16807 34.0639 381.798 -0.170055 0.0657295 -0.98324
0.346225 34.0606 381.775 -0.192927 0.164972 -0.967245
0.524231 34.0536 381.748 -0.173448 0.155307 -0.97252
0.702293 34.0535 381.688 -0.125109 0.0216629 -0.991906
0.880292 34.0516 381.683 -0.219611 -0.140368 -0.965437
1.05806 34.0444 381.577 -0.333726 -0.304273 -0.892214
1.23587 34.0386 381.512 -0.398515 -0.505173 -0.765498
1.41325 34.0242 381.35 -0.514052 -0.630479 -0.58159
1.59038 34.0074 381.147 -0.582706 -0.643216 -0.496717
1.76724 33.9891 380.959 -0.602314 -0.615342 -0.5085
1.94367 33.9663 380.793 -0.565373 -0.602903 -0.562904
2.12039 33.9522 380.646 -0.545712 -0.630104 -0.552419
2.29754 33.9465 380.46 -0.562747 -0.646616 -0.514979
2.47389 33.9307 380.299 -0.532686 -0.609722 -0.586928
2.65011 33.9154 380.195 -0.42023 -0.611828 -0.670129
2.82744 33.9151 380.107 -0.432864 -0.638515 -0.636339
3.00371 33.9031 379.986 -0.501586 -0.596125 -0.626934
3.17979 33.8904 379.843 -0.502533 -0.63289 -0.588992
5.83483 33.8676 379.564 0.226768 -0.862555 -0.4523
6.01116 33.8678 379.566 0.229073 -0.729073 -0.644964
6.1881 33.8679 379.566 0.328982 -0.757982 -0.563235
6.36684 33.8758 379.652 0.247942 -0.868655 -0.42891
6.54511 33.8817 379.715 0.28814 -0.892748 -0.346375
6.72543 33.8951 379.861 0.205915 -0.92297 -0.325155
7.62696 33.9657 380.643 0.551329 -0.725939 -0.411155
7.80851 33.9828 380.833 0.56435 -0.754693 -0.334587
7.99496 34.0201 381.121 0.59173 -0.740209 -0.319291
8.17761 34.0399 381.467 0.668032 -0.65551 -0.352192
8.36197 34.0658 381.724 0.702883 -0.610326 -0.365317
8.54917 34.102 382.013 0.651473 -0.659026 -0.375855
8.73232 34.1209 382.367 0.667073 -0.636762 -0.386715
8.918 34.1487 382.655 0.664894 -0.616237 -0.4221
9.10426 34.1776 382.873 0.470754 -0.711642 -0.521495
10.0077 34.2133 383.336 0.381294 -0.13332 -0.91479
10.1872 34.2155 383.406 0.50918 -0.114546 -0.853004
10.3707 34.2368 383.555 0.586338 -0.148745 -0.796293
10.5538 34.2449 383.685 0.525429 -0.0984508 -0.845122
10.7362 34.2526 383.772 0.499954 -0.0194718 -0.865833
10.9172 34.2587 383.874 0.418555 -0.0709117 -0.905419
11.0989 34.2664 383.956 0.494729 0.0637215 -0.866708
11.2815 34.2802 384.077 0.688514 0.0693847 -0.721896
11.4696 34.3035 384.362 0.716318 0.0882504 -0.692171
11.6524 34.3198 384.482 0.619178 0.0665575 -0.782425
11.8365 34.3256 384.612 0.530878 -0.0385796 -0.84657
12.572 34.3749 385.142 0.67741 -0.153077 -0.719502
12.7577 34.3886 385.318 0.533717 -0.255193 -0.806239
12.9426 34.3912 385.456 0.573688 -0.0828073 -0.814877
13.1262 34.4206 385.56 0.69281 0.0503841 -0.719358
13.3174 34.4432 385.891 0.625648 0.18741 -0.757259
13.4977 34.4438 385.901 0.470137 0.265998 -0.841556
13.682 34.4544 386.018 0.726841 0.0840488 -0.681644
13.8736 34.4858 386.312 0.725361 0.0429989 -0.687025
14.059 34.4893 386.463 0.633543 0.147462 -0.759525
14.2458 34.5106 386.625 0.764937 0.141239 -0.628429
14.4355 34.5379 386.877 0.719949 0.0725129 -0.690228
14.622 34.5457 387.028 0.743292 0.150544 -0.651808
14.8151 34.5759 387.342 0.807033 0.214621 -0.550124
15.0059 34.6019 387.605 0.816114 0.117055 -0.565912
15.2006 34.6235 387.951 0.850784 0.121661 -0.511239
15.3946 34.6673 388.271 0.799203 0.184172 -0.57215
15.5853 34.6754 388.489 0.880333 0.0835675 -0.466937
15.7881 34.7278 389.019 0.899036 0.049201 -0.435102
15.9818 34.7652 389.299 0.906824 0.0771301 -0.414393
18.1193 36.497 408.794 0.330453 -0.722192 -0.607651
18.3183 36.5096 408.924 0.407071 -0.610888 -0.67905
18.5075 36.5135 409.037 0.449538 -0.575927 -0.682806
18.7112 36.5334 409.178 0.307407 -0.641182 -0.703126
18.9016 36.5351 409.215 0.371938 -0.601412 -0.707082
19.1033 36.5567 409.413 0.502971 -0.496523 -0.70745
19.3004 36.5729 409.518 0.694206 -0.267828 -0.668091
19.5095 36.599 409.748 0.690015 -0.279603 -0.667608
19.7037 36.6052 409.958 0.599869 -0.296691 -0.743056
19.9047 36.6218 410.137 0.771443 -0.0550182 -0.633916
20.108 36.6564 410.38 0.778092 -0.16698 -0.605549
20.3144 36.67 410.592 0.677379 -0.34419 -0.650146
20.5104 36.6775 410.742 0.781247 -0.286157 -0.554767
20.7256 36.719 411.2 0.777329 -0.295059 -0.555608
20.9289 36.7305 411.405 0.79576 -0.205424 -0.569708
21.1413 36.7758 411.795 0.859578 0.00695036 -0.510957
-6.66322 34.5716 385.366 -0.65694 0.136217 -0.741536
-6.48212 34.561 385.307 -0.566132 0.264133 -0.780851
-6.29914 34.5433 385.105 -0.666497 0.210316 -0.715227
-6.11644 34.5263 384.924 -0.742848 0.103631 -0.661391
-5.9341 34.5117 384.733 -0.69573 0.184155 -0.694296
-5.75167 34.4929 384.556 -0.56993 0.24803 -0.783365
-5.56969 34.4753 384.396 -0.575628 0.157043 -0.80249
-5.38913 34.4692 384.295 -0.601262 0.174671 -0.779727
-5.2072 34.4519 384.111 -0.593833 0.157873 -0.788948
-5.02703 34.4512 384.014 -0.58949 0.112085 -0.799962
-4.84542 34.4356 383.839 -0.463867 0.083531 -0.881958
-4.66568 34.4208 383.799 -0.560817 -0.0183006 -0.827738
-4.48438 34.4058 383.596 -0.590457 0.0140126 -0.806948
-4.3045 34.3909 383.5 -0.414468 0.0984464 -0.904724
-4.12501 34.3871 383.429 -0.366754 0.125752 -0.92178
-3.945 34.3857 383.37 -0.28531 0.0507433 -0.957091
-3.76558 34.3815 383.322 -0.303872 0.0178054 -0.952546
-3.58628 34.3747 383.255 -0.442692 -0.0732578 -0.893676
-3.40654 34.3663 383.127 -0.575025 -0.115887 -0.809887
-3.22628 34.352 383.005 -0.471863 0.00293517 -0.881667
-3.04784 34.3483 382.962 -0.456023 0.0711667 -0.887118
-2.86762 34.3405 382.817 -0.454729 0.0701718 -0.887861
-2.68879 34.3285 382.755 -0.28174 0.0156389 -0.959363
-2.51002 34.3279 382.731 -0.335076 0.0300657 -0.941711
-2.33084 34.3189 382.64 -0.421826 0.0589741 -0.904757
-2.15175 34.3086 382.524 -0.490642 -0.0615817 -0.869182
-1.97277 34.3008 382.439 -0.416183 -0.0787008 -0.905869
-1.79387 34.2965 382.391 -0.282265 0.0137952 -0.959237
-1.61572 34.2917 382.337 -0.316109 0.0382483 -0.947952
-1.43687 34.2857 382.255 -0.362809 -0.0190034 -0.93167
-1.2581 34.2794 382.18 -0.281388 -0.0689839 -0.957111
-1.07994 34.2724 382.15 -0.237051 -0.0918101 -0.967149
-0.901388 34.2685 382.081 -0.391937 -0.141717 -0.909012
-0.722944 34.2595 381.981 -0.442773 -0.128046 -0.887444
-0.544666 34.2551 381.932 -0.296552 -0.0394657 -0.954201
-0.366387 34.2463 381.869 -0.211688 -0.0670793 -0.975033
-0.188229 34.2463 381.855 -0.228116 -0.0951536 -0.968973
-0.0101123 34.2432 381.821 -0.126651 -0.0304705 -0.991479
0.168015 34.2459 381.82 -0.064232 -0.00157964 -0.997934
0.346164 34.2439 381.798 -0.204021 -0.0790563 -0.975769
0.524158 34.2438 381.718 -0.296954 -0.208527 -0.931845
0.70218 34.2387 381.658 -0.268931 -0.34014 -0.9011
0.880082 34.2267 381.577 -0.351864 -0.439653 -0.826375
1.05774 34.2146 381.48 -0.488267 -0.512455 -0.706389
1.23498 34.1943 381.292 -0.540132 -0.616718 -0.57264
1.41226 34.1799 381.098 -0.591663 -0.586863 -0.552744
1.5895 34.168 380.959 -0.630998 -0.493128 -0.598888
1.76647 34.1532 380.793 -0.612504 -0.520408 -0.594991
1.94337 34.14 380.646 -0.587924 -0.591269 -0.552038
2.11974 34.1204 380.426 -0.550861 -0.669461 -0.49837
8.72446 34.268 382.053 0.77102 -0.480121 -0.418344
8.90992 34.2965 382.367 0.686289 -0.602153 -0.407945
9.0963 34.3241 382.624 0.4162 -0.801083 -0.430166
9.82559 34.3792 383.229 0.144087 -0.753496 -0.641469
10.0068 34.3874 383.298 0.374961 -0.398867 -0.836845
10.1872 34.4003 383.379 0.465431 -0.309385 -0.82925
10.3696 34.4043 383.468 0.609262 -0.269203 -0.745875
10.5538 34.4212 383.684 0.544573 -0.390555 -0.742231
10.7362 34.4281 383.771 0.441806 -0.35424 -0.82421
10.9172 34.4298 383.874 0.522382 -0.126788 -0.843233
11.1016 34.4533 384.029 0.516159 0.0544885 -0.854758
11.2826 34.4561 384.108 0.699264 0.0961847 -0.708363
11.4696 34.4836 384.362 0.712021 -0.0513768 -0.700276
11.652 34.4918 384.45 0.556259 -0.157052 -0.816033
11.836 34.5066 384.604 0.463125 -0.110333 -0.879399
12.572 34.5467 385.141 0.639743 -0.0575056 -0.766434
12.7544 34.562 385.236 0.639363 -0.183303 -0.746736
12.9426 34.5844 385.456 0.655113 -0.0813138 -0.751142
13.1287 34.5942 385.642 0.747596 0.0747655 -0.659932
13.3174 34.6246 385.892 0.676208 0.0569034 -0.73451
13.5023 34.6346 385.997 0.347425 0.0826149 -0.934061
13.6821 34.6361 386.039 0.704986 0.12046 -0.698917
13.8749 34.6633 386.356 0.765148 0.0309217 -0.643112
14.0612 34.6821 386.498 0.660305 0.0527995 -0.749139
14.249 34.6993 386.705 0.731093 0.136664 -0.668451
14.4377 34.7127 386.927 0.738723 0.195035 -0.645174
14.6286 34.7433 387.186 0.769469 0.233404 -0.594508
14.8207 34.7702 387.481 0.765671 0.236859 -0.598035
15.0072 34.776 387.63 0.81933 0.126201 -0.55926
15.2047 34.8215 388.029 0.865881 0.0790128 -0.49397
15.3982 34.8241 388.353 0.773557 0.159193 -0.613405
15.5855 34.8624 388.491 0.849012 0.21652 -0.481973
15.7897 34.913 389.048 0.893462 0.143049 -0.425749
15.9867 34.936 389.408 0.899168 0.0743119 -0.431248
18.11 36.6692 408.689 0.517582 -0.551583 -0.654113
18.3076 36.6831 408.793 0.436453 -0.605188 -0.665775
18.5047 36.6955 408.918 0.41248 -0.592803 -0.691697
18.7048 36.7136 408.964 0.3456 -0.611756 -0.711558
18.8977 36.7173 409.087 0.460351 -0.544622 -0.701045
19.095 36.7293 409.215 0.610564 -0.487666 -0.624014
19.3003 36.7565 409.511 0.671211 -0.316558 -0.670273
19.503 36.777 409.66 0.713458 -0.14084 -0.686397
19.6938 36.7785 409.895 0.721699 -0.296899 -0.625302
19.9046 36.8277 410.136 0.711104 -0.246353 -0.658514
20.1057 36.831 410.291 0.72138 -0.140013 -0.678238
20.3021 36.8395 410.52 0.680645 -0.33636 -0.650833
20.5103 36.8572 410.741 0.794988 -0.0556854 -0.604064
20.7244 36.8899 411.016 0.825615 0.00581174 -0.564205
20.9241 36.9309 411.32 0.855528 -0.121622 -0.50327
21.1423 36.9667 411.824 0.889133 0.0366066 -0.456182
-6.66398 34.7473 385.425 -0.582156 0.149299 -0.799253
-6.48304 34.7453 385.346 -0.602571 0.185698 -0.77616
-6.29928 34.7235 385.112 -0.736925 0.0350032 -0.675068
-6.11644 34.7092 384.925 -0.712427 0.0609987 -0.69909
-5.93411 34.6895 384.734 -0.69391 0.0656847 -0.71706
-5.75254 34.678 384.582 -0.655695 0.0555032 -0.752983
-5.57035 34.6601 384.431 -0.559526 0.155884 -0.814021
-5.3899 34.653 384.333 -0.606945 0.205926 -0.767602
-5.20777 34.6343 384.128 -0.619024 0.184202 -0.763465
-5.02704 34.624 384.015 -0.616997 0.0747792 -0.783405
-4.84545 34.6065 383.823 -0.544155 0.0487942 -0.837565
-4.66537 34.6042 383.761 -0.538136 0.0479768 -0.841491
-4.48459 34.5859 383.608 -0.532942 0.0774091 -0.842603
-4.30452 34.577 383.595 -0.386588 0.195963 -0.901193
-4.12525 34.5742 383.461 -0.424335 0.19329 -0.884635
-3.94517 34.5626 383.376 -0.307525 0.162543 -0.937554
-3.76583 34.5568 383.329 -0.388708 0.0211328 -0.921118
-3.58603 34.5431 383.191 -0.481185 -0.203417 -0.852691
-3.40589 34.5361 383.127 -0.475152 -0.232778 -0.848555
-3.22656 34.536 383.039 -0.412464 -0.0298843 -0.910484
-3.04785 34.53 382.963 -0.455373 0.0832615 -0.886399
-2.86821 34.5112 382.854 -0.498936 0.0384727 -0.865785
-2.68885 34.509 382.755 -0.267855 0.0117982 -0.963387
-2.51011 34.5067 382.739 -0.304753 -0.000788597 -0.952431
-2.33084 34.4984 382.639 -0.519081 -0.0863047 -0.850357
-2.15168 34.4869 382.512 -0.501264 -0.103749 -0.859052
-1.97292 34.4805 382.427 -0.335421 -0.0334066 -0.941476
-1.79408 34.4801 382.391 -0.260859 -0.0592666 -0.963556
-1.61572 34.4726 382.337 -0.370395 -0.070811 -0.926171
-1.43687 34.4625 382.244 -0.404617 -0.0889869 -0.910147
-1.25818 34.4567 382.18 -0.301719 -0.102415 -0.94788
-1.07998 34.454 382.124 -0.290843 -0.142946 -0.946032
-0.901397 34.4461 382.063 -0.381228 -0.204355 -0.901612
-0.723003 34.437 381.998 -0.36497 -0.134686 -0.921226
-0.544706 34.4344 381.933 -0.320482 -0.0757696 -0.944219
-0.366517 34.431 381.869 -0.237769 -0.156868 -0.958571
-0.188347 34.4342 381.833 -0.161009 -0.217925 -0.962593
-0.0101904 34.4285 381.798 -0.0997459 -0.216989 -0.971065
0.167952 34.4242 381.797 -0.141168 -0.356189 -0.923689
0.345997 34.415 381.718 -0.291416 -0.559214 -0.776117
0.523989 34.4086 381.647 -0.365902 -0.56753 -0.737581
0.701824 34.3977 381.525 -0.352717 -0.549213 -0.757599
9.82177 34.5449 383.073 0.354423 -0.860825 -0.365192
10.0035 34.5551 383.182 0.255418 -0.877201 -0.406546
10.1854 34.5658 383.298 0.301581 -0.82004 -0.486399
10.3658 34.5707 383.41 0.383908 -0.760156 -0.524192
10.5481 34.5818 383.468 0.485503 -0.688567 -0.538668
10.7349 34.6161 383.684 0.507349 -0.617491 -0.601084
10.9146 34.6263 383.848 0.545993 -0.535517 -0.644294
11.1016 34.6338 384.028 0.533868 -0.357257 -0.766389
11.2834 34.6472 384.109 0.622879 -0.190454 -0.758781
11.4675 34.6563 384.277 0.659469 -0.251015 -0.708584
11.6519 34.6714 384.43 0.576329 -0.315942 -0.753675
11.8356 34.6838 384.574 0.451327 -0.327396 -0.83013
12.569 34.7385 385.042 0.555575 -0.144626 -0.818792
12.7544 34.7449 385.236 0.6987 -0.095381 -0.709028
12.9432 34.7707 385.456 0.73801 -0.0016867 -0.674788
13.1295 34.7831 385.648 0.747056 0.00323263 -0.664754
13.3173 34.7974 385.861 0.690635 -0.0801591 -0.718747
13.5023 34.8193 385.997 0.427076 -0.177533 -0.886616
13.6838 34.8207 386.056 0.667919 0.0318502 -0.743553
13.8736 34.8563 386.312 0.768847 -0.0237638 -0.638991
14.0616 34.8618 386.518 0.713163 -0.106907 -0.692799
14.2507 34.8898 386.732 0.765956 0.0815444 -0.6377
14.4418 34.9182 387.012 0.760413 0.199003 -0.618199
14.6298 34.9273 387.21 0.789231 0.140601 -0.597784
14.8208 34.9618 387.482 0.751647 0.108696 -0.650547
15.0086 34.9676 387.648 0.802713 0.186788 -0.566358
15.2057 35.0024 388.04 0.874232 0.098623 -0.475386
15.4003 35.0352 388.389 0.825967 0.0398431 -0.562308
15.5959 35.0675 388.741 0.831215 0.220833 -0.510211
15.7897 35.0974 389.049 0.879688 0.144653 -0.453018
18.1027 36.8463 408.452 0.498709 -0.519457 -0.693869
18.307 36.8728 408.601 0.451815 -0.609681 -0.651269
18.5025 36.8822 408.723 0.407892 -0.602712 -0.68583
18.6992 36.8935 408.856 0.431876 -0.44704 -0.783351
18.8925 36.8937 408.964 0.489146 -0.420589 -0.764095
19.0856 36.8985 409.088 0.725752 -0.365376 -0.58291
19.2993 36.9459 409.48 0.732287 -0.364546 -0.575206
19.4973 36.9589 409.617 0.585733 -0.397066 -0.70658
19.6935 36.9634 409.73 0.738167 -0.31953 -0.594146
19.9037 36.9881 410.087 0.734232 -0.337858 -0.58886
20.1004 37.0076 410.274 0.590602 -0.334498 -0.73437
20.2974 37.0207 410.319 0.782348 -0.276857 -0.557926
20.5211 37.0807 410.937 0.814437 -0.0367347 -0.579088
20.7245 37.0892 411.017 0.774167 0.150672 -0.614787
20.9289 37.1017 411.404 0.892315 0.0072012 -0.451355
21.1454 37.1662 411.865 0.889888 0.0194073 -0.455767
-6.66591 34.9407 385.506 -0.544962 0.19518 -0.815427
-6.4834 34.93 385.346 -0.688032 0.112821 -0.716857
-6.29928 34.9187 385.106 -0.732535 -0.0219462 -0.680376
-6.1171 34.8844 384.989 -0.716606 0.0719666 -0.693755
-5.93413 34.8641 384.734 -0.68634 0.170288 -0.707063
-5.7527 34.8562 384.608 -0.592574 0.120018 -0.796524
-5.57195 34.8529 384.488 -0.519315 0.0982352 -0.848918
-5.39148 34.842 384.408 -0.634101 0.1261 -0.762899
-5.20869 34.8192 384.179 -0.690038 0.112999 -0.714898
-5.02705 34.7995 384.015 -0.635032 0.0716083 -0.76916
-4.84545 34.7852 383.879 -0.53718 0.107737 -0.836559
-4.66604 34.7767 383.799 -0.502927 0.141375 -0.852689
-4.48576 34.7728 383.662 -0.443469 0.132006 -0.886515
-4.30591 34.7667 383.596 -0.391931 0.0814919 -0.916378
-4.12627 34.7655 383.5 -0.473486 0.011574 -0.880725
-3.94629 34.7531 383.43 -0.433062 0.0762821 -0.89813
-3.76583 34.7421 383.279 -0.559002 -0.0032697 -0.82916
-3.58527 34.7284 383.127 -0.506839 -0.167234 -0.845664
-3.40589 34.7259 383.058 -0.305548 -0.197161 -0.931541
-3.22751 34.7146 383.051 -0.31788 -0.0880827 -0.94403
-3.04838 34.7049 382.986 -0.496381 -0.037584 -0.867291
-2.86822 34.6976 382.827 -0.522361 -0.0733407 -0.849564
-2.6891 34.695 382.754 -0.284535 -0.0567636 -0.956984
-2.51011 34.6872 382.73 -0.391167 -0.101782 -0.914674
-2.33066 34.6684 382.568 -0.525966 -0.198647 -0.826982
-2.15174 34.6587 382.511 -0.440023 -0.186754 -0.878352
-1.97298 34.6525 382.427 -0.355986 -0.150546 -0.922285
-1.79418 34.6515 382.36 -0.273298 -0.157439 -0.948958
-1.61564 34.6483 382.314 -0.383108 -0.229466 -0.894748
-1.43687 34.6387 382.209 -0.402996 -0.291104 -0.867671
-1.25821 34.6333 382.15 -0.331047 -0.275422 -0.902524
-1.07994 34.6286 382.073 -0.342041 -0.33701 -0.877173
-0.901396 34.621 381.998 -0.292305 -0.471934 -0.831767
-0.723003 34.6196 381.96 -0.269889 -0.526787 -0.806012
-0.544706 34.6195 381.895 -0.354888 -0.47845 -0.803206
-0.366518 34.6005 381.789 -0.27669 -0.457886 -0.844857
10.1767 34.7149 382.954 0.253917 -0.927862 -0.273126
10.3554 34.7155 382.965 0.268211 -0.927765 -0.259452
10.5466 34.7527 383.346 0.369276 -0.884201 -0.286048
10.7246 34.7567 383.412 0.411235 -0.836012 -0.363278
10.9116 34.779 383.652 0.488419 -0.796392 -0.35666
11.0986 34.8037 383.921 0.413575 -0.821615 -0.392307
11.2833 34.821 384.035 0.426031 -0.735721 -0.52651
11.4674 34.8354 384.179 0.520984 -0.6333 -0.572282
11.649 34.8422 384.334 0.490244 -0.632815 -0.599338
11.8314 34.8513 384.442 0.472479 -0.54162 -0.695277
12.0163 34.8731 384.611 0.700527 -0.365315 -0.613031
12.2041 34.8908 384.859 0.64999 -0.438227 -0.620862
12.3847 34.8934 384.938 0.303363 -0.539563 -0.785394
12.5698 34.8989 385.042 0.572692 -0.285829 -0.768327
12.7548 34.9401 385.235 0.742895 -0.161805 -0.649559
12.9432 34.9464 385.456 0.737862 -0.130857 -0.662146
13.1299 34.9685 385.648 0.712842 -0.0678013 -0.69804
13.3156 34.9838 385.804 0.656951 -0.0656696 -0.751068
13.5003 34.9914 385.94 0.577036 -0.203989 -0.790834
13.6877 35.0114 386.132 0.638502 -0.0554586 -0.767619
13.872 35.0194 386.24 0.73735 0.000379093 -0.675511
14.0612 35.0574 386.498 0.787602 -0.103326 -0.60746
14.253 35.0648 386.804 0.813291 -0.0388446 -0.580559
14.4447 35.0907 387.08 0.764 -0.000160744 -0.645216
14.6305 35.1098 387.22 0.785431 0.0345903 -0.617983
14.8253 35.1294 387.575 0.794879 0.105731 -0.597485
15.0148 35.1631 387.798 0.760588 0.268761 -0.590994
