-10.3935 28.6756 391.67 -0.94656 -0.152185 -0.284366
-10.3436 28.7644 391.328 -0.86389 -0.372685 -0.33882
0.861403 34.9175 375.517 -0.228729 -0.970587 0.0751224
0.720763 34.9226 375.389 -0.359155 -0.932613 0.0352299
0.695355 34.9857 375.121 -0.590227 -0.796644 -0.130348
0.674809 35.0511 374.848 -0.556834 -0.823096 -0.111574
0.594188 35.0866 374.647 -0.446824 -0.89135 -0.0764447
0.618571 35.177 374.314 -0.412561 -0.909598 -0.0492406
0.51195 35.1962 374.15 -0.41682 -0.908828 0.0171115
0.431741 35.233 373.945 -0.59045 -0.806272 -0.0359774
0.379777 35.2878 373.705 -0.607926 -0.787673 -0.0999845
0.338501 35.345 373.454 -0.488647 -0.872296 -0.0180044
0.239205 35.365 373.279 -0.435979 -0.89815 0.0569973
0.150153 35.3958 373.087 -0.589135 -0.801174 -0.105075
0.15592 35.4827 372.774 -0.562543 -0.82344 -0.0741115
0.0801796 35.5143 372.569 -0.535183 -0.840342 -0.0860549
0.0616453 35.5815 372.29 -0.507312 -0.850833 -0.136812
-0.0229856 35.6155 372.092 -0.385234 -0.918599 -0.0881562
-0.0745345 35.6663 371.853 -0.369582 -0.925058 -0.0876185
-0.159514 35.6995 371.655 -0.380533 -0.922121 -0.0699125
-0.210871 35.7512 371.415 -0.483928 -0.870711 -0.0876082
-0.230891 35.8181 371.136 -0.52942 -0.841187 -0.110087
-0.280326 35.8701 370.893 -0.580508 -0.787207 -0.208126
-0.236513 35.9693 370.535 -0.509374 -0.84159 -0.179624
-0.281256 36.0239 370.286 -0.485474 -0.867348 -0.109648
-0.355259 36.0638 370.073 -0.480191 -0.870481 -0.108069
-0.382766 36.1273 369.802 -0.504403 -0.853794 -0.12889
-0.397664 36.1972 369.515 -0.630619 -0.735052 -0.249034
7.20204 28.0938 408.212 0.00985469 -0.344474 0.938744
6.89153 28.0203 408.278 0.257001 -0.361922 0.896082
6.59535 27.9437 408.328 0.195418 -0.274113 0.941634
6.29801 27.8725 408.381 0.202234 -0.340791 0.91813
5.99483 27.7987 408.439 0.276726 -0.379511 0.882833
5.70619 27.7271 408.482 0.177107 -0.261888 0.948708
5.47005 27.6814 408.471 0.135144 -0.214516 0.967326
5.15198 27.6074 408.547 0.142585 -0.271318 0.95187
4.92013 27.5653 408.532 0.0056948 -0.277743 0.960639
4.69372 27.5253 408.51 -0.00713546 -0.249301 0.9684
4.46319 27.4866 408.494 0.0320589 -0.195446 0.98019
4.19723 27.4256 408.515 -0.0306275 -0.263991 0.964039
3.99351 27.4006 408.473 -0.0609372 -0.370973 0.926642
3.75506 27.3564 408.464 0.046973 -0.326597 0.943996
3.52338 27.3149 408.449 0.00488105 -0.245795 0.96931
3.2823 27.2722 408.445 0.00846109 -0.246171 0.969189
3.05016 27.2272 408.432 -0.101424 -0.308916 0.945666
2.86958 27.2098 408.363 -0.0946816 -0.337708 0.936477
2.61909 27.16 408.37 -0.035705 -0.331015 0.94295
2.40654 27.133 408.336 -0.0487664 -0.354518 0.933777
2.18167 27.0941 408.315 0.0663234 -0.306124 0.949678
1.92509 27.0346 408.329 -0.0718072 -0.261645 0.962489
1.70919 26.9998 408.298 -0.154409 -0.364931 0.918141
1.5091 26.974 408.253 -0.134107 -0.420402 0.897372
1.32025 26.9552 408.195 -0.0854968 -0.358094 0.929763
1.10612 26.9203 408.164 -0.0568736 -0.256165 0.964958
0.906319 26.8872 408.118 -0.259061 -0.207158 0.943384
0.725435 26.8708 408.051 -0.181558 -0.305193 0.934823
0.490413 26.8295 408.042 -0.219615 -0.346734 0.911891
0.34168 26.8239 407.942 -0.294575 -0.29394 0.909299
0.122281 26.7872 407.917 -0.166431 -0.346092 0.923321
-0.0577473 26.7691 407.85 -0.152608 -0.376135 0.913911
-0.249772 26.7419 407.797 -0.19815 -0.318917 0.926838
-0.462577 26.7118 407.764 -0.299053 -0.353385 0.88639
-0.629496 26.7019 407.684 -0.325912 -0.421756 0.846111
-0.802943 26.6846 407.61 -0.112678 -0.434815 0.893443
-1.0544 26.6293 407.622 -0.101685 -0.449271 0.88759
-1.20527 26.6235 407.523 -0.385608 -0.416453 0.823331
-1.378 26.6108 407.45 -0.371852 -0.413854 0.830934
-1.54351 26.6004 407.367 -0.370696 -0.402195 0.837152
-1.69596 26.588 407.271 -0.276824 -0.387705 0.879235
-1.90238 26.566 407.234 -0.254672 -0.390636 0.884616
-2.06571 26.5563 407.149 -0.389454 -0.402323 0.82853
-2.2519 26.536 407.091 -0.308316 -0.496276 0.811573
-2.42925 26.5221 407.024 -0.131167 -0.508338 0.85111
-2.63674 26.4844 406.987 -0.169213 -0.435158 0.88431
-2.79944 26.477 406.902 -0.381179 -0.342136 0.858863
-2.96131 26.4655 406.817 -0.432484 -0.333111 0.837851
-3.14149 26.4454 406.752 -0.392814 -0.405218 0.825527
-3.29963 26.4386 406.663 -0.368806 -0.434356 0.821776
-3.46456 26.4273 406.581 -0.339026 -0.398304 0.8523
-3.62999 26.4157 406.5 -0.390632 -0.368127 0.843735
-3.78855 26.4025 406.411 -0.405472 -0.418722 0.812567
-3.96016 26.3911 406.337 -0.403594 -0.446613 0.798529
-4.11801 26.3843 406.247 -0.452678 -0.448496 0.770671
-4.26372 26.3821 406.145 -0.430881 -0.514099 0.741649
-4.41103 26.3808 406.044 -0.444168 -0.498138 0.744696
-4.58022 26.3655 405.968 -0.458757 -0.44496 0.769125
-4.72197 26.365 405.861 -0.443452 -0.458757 0.769995
-4.89492 26.3497 405.789 -0.396293 -0.467477 0.7902
-5.03894 26.349 405.684 -0.427391 -0.455188 0.781115
-5.1959 26.3443 405.594 -0.465484 -0.43557 0.770456
-5.36107 26.3328 405.513 -0.521637 -0.404653 0.7511
-5.49448 26.3327 405.397 -0.52453 -0.393116 0.755201
-5.63591 26.3281 405.29 -0.44094 -0.382404 0.811997
-5.80334 26.3164 405.212 -0.457054 -0.387502 0.80059
-5.95136 26.3144 405.113 -0.536195 -0.352509 0.766963
-6.08602 26.3174 404.998 -0.564937 -0.289693 0.772609
-6.23734 26.3132 404.902 -0.6529 -0.301067 0.69504
-6.37234 26.3162 404.788 -0.638244 -0.434113 0.63576
-6.50556 26.3232 404.671 -0.621669 -0.507425 0.596697
-6.60909 26.3372 404.522 -0.612626 -0.502614 0.609975
-6.74813 26.338 404.412 -0.548467 -0.511051 0.661824
-6.88081 26.3417 404.296 -0.565884 -0.532765 0.629235
-7.0133 26.3477 404.178 -0.588212 -0.553793 0.589338
-7.13038 26.3576 404.044 -0.595253 -0.46923 0.652301
-7.27863 26.3553 403.944 -0.575429 -0.374843 0.726893
-7.42134 26.3519 403.839 -0.625454 -0.398991 0.670532
-7.55391 26.3557 403.722 -0.662394 -0.471904 0.581843
-7.66005 26.3721 403.575 -0.656153 -0.51189 0.554465
-7.77956 26.3829 403.444 -0.673804 -0.458545 0.579417
-7.88851 26.3976 403.3 -0.730209 -0.391245 0.560109
-8.00448 26.4103 403.163 -0.761687 -0.380197 0.524674
-8.11767 26.4212 403.024 -0.768003 -0.403386 0.497444
-8.22261 26.44 402.877 -0.76859 -0.474331 0.429277
-8.32049 26.4701 402.719 -0.756149 -0.509422 0.410765
-8.42101 26.4854 402.566 -0.797377 -0.458667 0.392191
-8.5152 26.5031 402.405 -0.756493 -0.494408 0.428111
-8.62248 26.5195 402.258 -0.7171 -0.551515 0.426144
-8.71661 26.5371 402.097 -0.821603 -0.505818 0.262901
-8.78276 26.5782 401.903 -0.850841 -0.461893 0.250449
-8.84122 26.6183 401.701 -0.831248 -0.435216 0.345853
-8.95635 26.638 401.563 -0.800322 -0.442091 0.405019
-9.03184 26.6629 401.38 -0.81604 -0.388505 0.42795
-9.1593 26.6745 401.255 -0.877158 -0.395391 0.272506
-9.21156 26.7119 401.046 -0.811894 -0.538715 0.224975
-9.28394 26.7474 400.859 -0.767751 -0.520921 0.373095
-9.38686 26.7679 400.707 -0.793794 -0.464122 0.393041
-9.4716 26.7913 400.534 -0.805025 -0.526349 0.273662
-9.53341 26.8255 400.335 -0.858585 -0.464883 0.216139
-9.61145 26.8576 400.153 -0.875888 -0.431785 0.215364
-9.65619 26.9077 399.933 -0.856827 -0.415922 0.304724
-9.75924 26.9294 399.781 -0.865695 -0.369256 0.337969
-9.8603 26.9469 399.623 -0.881447 -0.430275 0.194716
-9.88073 27.0002 399.38 -0.859334 -0.486815 0.156705
-9.97091 27.0335 399.21 -0.819588 -0.488721 0.299044
-10.0399 27.0613 399.014 -0.852881 -0.399406 0.336258
-10.1032 27.0942 398.82 -0.935144 -0.299311 0.189523
-10.1564 27.1467 398.607 -0.929758 -0.318246 0.185122
-10.2407 27.1794 398.432 -0.862767 -0.448587 0.233246
-10.3265 27.202 398.258 -0.843405 -0.51483 0.153679
-10.3757 27.2429 398.043 -0.830991 -0.535692 0.149957
-10.424 27.2941 397.825 -0.893946 -0.425643 0.140316
-10.4912 27.3283 397.628 -0.902473 -0.404778 0.147301
-10.5353 27.3775 397.405 -0.950959 -0.303245 -0.0609843
-10.4535 27.473 397.032 -0.961288 -0.264208 -0.0782312
-10.5474 27.5057 396.87 -0.834432 -0.493202 0.245916
-10.6083 27.5521 396.666 -0.897954 -0.412892 0.152309
-10.6337 27.6083 396.419 -0.953628 -0.297779 0.0438265
-10.6848 27.6549 396.203 -0.915118 -0.367892 0.16497
-10.7712 27.6871 396.026 -0.894574 -0.410543 0.176614
-10.7941 27.7394 395.779 -0.924679 -0.378695 -0.0394799
-10.7773 27.8178 395.483 -0.928232 -0.360706 -0.0909702
-10.8264 27.8639 395.263 -0.908803 -0.38847 -0.152213
-10.772 27.9597 394.919 -0.893168 -0.433843 -0.118454
-10.8023 28.0165 394.679 -0.883223 -0.458811 0.0970051
-10.8252 28.0757 394.428 -0.968378 -0.24533 -0.0453644
-10.7901 28.1636 394.108 -0.965315 -0.226045 -0.130655
-10.8015 28.2334 393.842 -0.951765 -0.266984 -0.151204
-10.7318 28.3339 393.48 -0.982359 -0.17736 -0.0592753
-10.7783 28.3762 393.258 -0.977818 -0.18457 -0.0990271
-10.7186 28.4822 392.905 -0.938745 -0.280651 -0.199983
-10.717 28.554 392.622 -0.904983 -0.284107 -0.316685
-10.4959 28.7348 392.077 -0.878928 -0.329746 -0.344604
-10.4973 28.8054 391.798 -0.866638 -0.453239 -0.208599
-10.4912 28.8798 391.508 -0.898485 -0.305195 -0.315563
0.619734 34.9954 375.813 -0.343182 -0.938939 0.0248929
0.539441 35.0309 375.612 -0.401118 -0.915222 -0.038375
0.50138 35.0875 375.36 -0.501856 -0.854161 -0.136194
0.459664 35.1424 375.112 -0.407387 -0.909945 -0.0776956
0.362602 35.1697 374.931 -0.439773 -0.895215 -0.0720379
0.279608 35.204 374.733 -0.458748 -0.881999 -0.107831
0.265983 35.2731 374.45 -0.429071 -0.897154 -0.104942
0.273435 35.3535 374.141 -0.451086 -0.891092 -0.0497589
0.141494 35.3623 374.003 -0.486871 -0.868719 -0.0910152
0.170302 35.4535 373.667 -0.40898 -0.909964 -0.0685641
0.0348775 35.4618 373.532 -0.320845 -0.947054 -0.0121183
0.0137414 35.5275 373.257 -0.481196 -0.866513 -0.132687
-0.0264462 35.5847 373.004 -0.465409 -0.882561 -0.0669295
-0.145555 35.6004 372.849 -0.481235 -0.876476 -0.014212
-0.202997 35.6481 372.618 -0.480798 -0.874789 -0.0598095
-0.273331 35.6893 372.402 -0.441908 -0.895785 -0.0478147
-0.326886 35.7391 372.166 -0.483991 -0.870799 -0.0863793
-0.335284 35.8116 371.874 -0.525328 -0.842766 -0.117374
-0.33594 35.889 371.571 -0.601249 -0.795318 -0.0772544
-0.431202 35.9171 371.386 -0.606598 -0.794027 -0.0394952
-0.466716 35.9698 371.13 -0.65813 -0.738158 -0.148284
-0.481009 36.0462 370.84 -0.620831 -0.758773 -0.197061
-0.462072 36.133 370.512 -0.503865 -0.857772 -0.101718
-0.537838 36.172 370.301 -0.558883 -0.824387 -0.0896471
-0.524175 36.2502 369.984 -0.600272 -0.789801 -0.126045
-0.598791 36.2923 369.767 -0.664646 -0.72365 -0.185946
-0.562928 36.38 369.426 -0.703872 -0.653443 -0.278527
7.0544 28.2047 408.373 0.118547 -0.444706 0.887797
6.80627 28.1617 408.376 0.214197 -0.548653 0.808146
6.5465 28.1079 408.388 0.265805 -0.461966 0.84613
6.20376 28.0158 408.488 0.25618 -0.374468 0.891149
5.94699 27.9632 408.498 0.169675 -0.320814 0.93182
5.69749 27.914 408.5 0.130323 -0.213354 0.968244
5.39509 27.847 408.56 0.170919 -0.205984 0.963513
5.12762 27.7822 408.581 0.120722 -0.24275 0.962548
4.88951 27.7389 408.572 -0.0311443 -0.210635 0.977069
4.66158 27.7021 408.553 -0.0503786 -0.22247 0.973637
4.43767 27.6694 408.529 0.0764346 -0.222476 0.971937
4.14199 27.5916 408.581 0.0458533 -0.297362 0.953663
3.93705 27.5607 408.539 -0.0758119 -0.368785 0.926418
3.72022 27.5261 408.509 -0.00932735 -0.402869 0.91521
3.49682 27.49 408.485 0.0376425 -0.40562 0.913266
3.24821 27.4389 408.489 0.0540557 -0.321583 0.945337
2.99952 27.3893 408.493 -0.0812545 -0.300059 0.950454
2.79489 27.3522 408.451 -0.0727097 -0.430428 0.899692
2.57425 27.3183 408.423 0.0049023 -0.46648 0.884518
2.34713 27.2814 408.406 -0.0481545 -0.452164 0.890634
2.14241 27.2546 408.365 0.0334125 -0.421487 0.906219
1.89747 27.2013 408.366 0.0104187 -0.336513 0.941621
1.68544 27.1676 408.33 -0.109108 -0.335272 0.935782
1.4728 27.1377 408.3 -0.196585 -0.360402 0.911847
1.29638 27.1243 408.228 -0.171302 -0.386713 0.90615
1.08358 27.0907 408.196 -0.106709 -0.310205 0.944662
0.866658 27.0578 408.167 -0.152757 -0.291514 0.944291
0.649433 27.0181 408.14 -0.1289 -0.410147 0.902865
0.466183 27.0011 408.075 -0.263941 -0.393352 0.880687
0.298237 26.9916 407.997 -0.216154 -0.35708 0.908719
0.0703374 26.9479 407.981 -0.122318 -0.41619 0.901013
-0.119613 26.9272 407.924 -0.196986 -0.441657 0.875292
-0.322816 26.9021 407.883 -0.165612 -0.401249 0.900873
-0.50386 26.8756 407.816 -0.225724 -0.427597 0.875334
-0.693122 26.8549 407.76 -0.248948 -0.506614 0.82545
-0.88549 26.8306 407.708 -0.0776531 -0.510362 0.856447
-1.09414 26.801 407.671 -0.180229 -0.429309 0.884992
-1.25897 26.7919 407.588 -0.406556 -0.333026 0.850768
-1.42977 26.7798 407.513 -0.389343 -0.388535 0.835136
-1.5812 26.7714 407.415 -0.368273 -0.419733 0.829578
-1.77967 26.7491 407.37 -0.246304 -0.477758 0.843257
-1.94929 26.7281 407.292 -0.229937 -0.495356 0.837706
-2.1428 26.699 407.24 -0.258522 -0.508059 0.82161
-2.31527 26.6871 407.167 -0.24649 -0.527177 0.81322
-2.49899 26.6675 407.106 -0.232048 -0.43602 0.869506
-2.67139 26.6551 407.031 -0.300163 -0.370539 0.878978
-2.84028 26.6406 406.954 -0.381456 -0.390501 0.837854
-3.00985 26.6266 406.877 -0.348066 -0.398345 0.848629
-3.1774 26.612 406.798 -0.374787 -0.355378 0.856295
-3.3426 26.6028 406.717 -0.414164 -0.375353 0.829203
-3.50172 26.5943 406.628 -0.372321 -0.399112 0.837906
-3.68039 26.5806 406.562 -0.342647 -0.380311 0.859044
-3.86403 26.5622 406.501 -0.379151 -0.420148 0.824451
-4.00875 26.554 406.397 -0.400812 -0.46449 0.789683
-4.1757 26.5424 406.317 -0.382464 -0.466543 0.797533
-4.35553 26.5227 406.254 -0.453669 -0.493949 0.741754
-4.48884 26.5264 406.137 -0.490447 -0.509888 0.706736
-4.62218 26.5296 406.021 -0.430803 -0.492778 0.756028
-4.79661 26.5138 405.95 -0.43031 -0.459953 0.776709
-4.93167 26.5166 405.836 -0.410321 -0.464673 0.784675
-5.11346 26.4966 405.774 -0.420864 -0.534042 0.733262
-5.24557 26.4911 405.655 -0.436157 -0.602354 0.668533
-5.38461 26.4926 405.546 -0.477519 -0.575188 0.66418
-5.52566 26.4967 405.438 -0.510042 -0.471908 0.719139
-5.68961 26.4922 405.356 -0.433898 -0.398745 0.80792
-5.84903 26.4842 405.27 -0.505766 -0.319597 0.801285
-5.97581 26.49 405.146 -0.60973 -0.241243 0.755004
-6.11756 26.4887 405.039 -0.547019 -0.320221 0.773453
-6.26796 26.4807 404.942 -0.506458 -0.440775 0.741092
-6.41584 26.4791 404.843 -0.562755 -0.469894 0.680078
-6.54861 26.4828 404.726 -0.642953 -0.46132 0.611388
-6.67782 26.4877 404.605 -0.601743 -0.516126 0.609524
-6.81715 26.487 404.496 -0.502518 -0.574288 0.646273
-6.96614 26.485 404.398 -0.541624 -0.539883 0.644337
-7.09871 26.4891 404.281 -0.685037 -0.48415 0.544356
-7.18094 26.5156 404.107 -0.663984 -0.482474 0.571265
-7.3137 26.521 403.99 -0.531061 -0.456876 0.71361
-7.45863 26.5187 403.887 -0.549898 -0.434229 0.713483
-7.59971 26.5193 403.78 -0.648672 -0.409471 0.641528
-7.72667 26.5251 403.657 -0.725168 -0.424168 0.542414
-7.82425 26.5469 403.5 -0.705898 -0.484668 0.516532
-7.94638 26.5549 403.371 -0.681302 -0.536906 0.497554
-8.05135 26.575 403.222 -0.690242 -0.533619 0.488688
-8.16179 26.5867 403.08 -0.69371 -0.470605 0.54525
-8.29327 26.5909 402.962 -0.752589 -0.460295 0.470891
-8.37981 26.6174 402.792 -0.798496 -0.462885 0.384892
-8.46679 26.6433 402.623 -0.794819 -0.426543 0.431653
-8.57083 26.6618 402.473 -0.761489 -0.377985 0.526557
-8.6978 26.6679 402.349 -0.781867 -0.394945 0.482393
-8.77874 26.6947 402.173 -0.883696 -0.385075 0.266081
-8.82249 26.7439 401.954 -0.886866 -0.40334 0.225356
-8.92083 26.7681 401.796 -0.824757 -0.456205 0.334145
-8.99049 26.7986 401.609 -0.819255 -0.456486 0.347047
-9.07585 26.8244 401.436 -0.770674 -0.459772 0.441214
-9.18886 26.8402 401.295 -0.81951 -0.381482 0.427639
-9.27288 26.8614 401.123 -0.892605 -0.397754 0.212246
-9.31943 26.9134 400.905 -0.765995 -0.570596 0.296094
-9.4452 26.9208 400.78 -0.714366 -0.528005 0.459229
-9.55681 26.9322 400.638 -0.866371 -0.420924 0.268747
-9.59092 26.9871 400.406 -0.852373 -0.49252 0.17574
-9.6705 27.0215 400.226 -0.855786 -0.492077 0.159657
-9.71184 27.0658 400.003 -0.824745 -0.519791 0.22274
-9.81235 27.0856 399.847 -0.768957 -0.509631 0.385981
-9.89051 27.1132 399.667 -0.877549 -0.39684 0.26912
-9.97858 27.1422 399.497 -0.863843 -0.489481 0.119096
-9.99551 27.2035 399.243 -0.818281 -0.542529 0.189943
-10.1013 27.2293 399.092 -0.864471 -0.422511 0.272349
-10.1602 27.2649 398.89 -0.920282 -0.339153 0.195082
-10.2186 27.3071 398.683 -0.853658 -0.461953 0.240558
-10.3131 27.3248 398.521 -0.778753 -0.557784 0.287092
-10.3825 27.3586 398.328 -0.88453 -0.417987 0.207108
-10.4328 27.4054 398.113 -0.926953 -0.356192 0.117834
-10.4692 27.4569 397.882 -0.894869 -0.428862 0.123641
-10.5226 27.5012 397.67 -0.931803 -0.330747 0.149499
-10.56 27.5514 397.439 -0.984529 -0.168104 -0.0494429
-10.5536 27.6362 397.156 -0.943026 -0.331489 -0.0285741
-10.5967 27.6736 396.933 -0.875044 -0.430929 0.22045
-10.6667 27.7086 396.738 -0.939297 -0.323256 0.115003
-10.6887 27.7677 396.489 -0.93116 -0.361308 0.0489727
-10.7229 27.8198 396.252 -0.908461 -0.368696 0.196881
-10.7946 27.8501 396.058 -0.900354 -0.357951 0.247457
-10.8807 27.8773 395.887 -0.949904 -0.312279 -0.0128142
-10.8509 27.9684 395.574 -0.946368 -0.321105 -0.0357725
-10.8974 28.0158 395.352 -0.937756 -0.325306 -0.121615
-10.8108 28.131 394.972 -0.938038 -0.318321 -0.136953
-10.8499 28.1729 394.739 -0.924795 -0.380371 -0.00853301
-10.8505 28.2531 394.463 -0.918564 -0.387569 -0.0776567
-10.8909 28.3012 394.232 -0.921341 -0.364691 -0.134649
-10.8261 28.404 393.876 -0.902245 -0.36186 -0.234544
-10.7573 28.5153 393.515 -0.912383 -0.395002 -0.107383
-10.8437 28.5418 393.338 -0.949872 -0.310101 -0.0397584
-10.8143 28.6227 393.023 -0.892818 -0.410754 -0.184818
-10.8043 28.6988 392.731 -0.876667 -0.371778 -0.305344
-10.6989 28.8224 392.324 -0.860946 -0.370131 -0.348963
-10.5668 28.9592 391.885 -0.856272 -0.454435 -0.245536
-10.5169 29.0555 391.544 -0.922705 -0.231629 -0.308161
0.403841 35.0868 376.076 -0.354455 -0.934002 0.0447401
0.28185 35.0999 375.929 -0.406301 -0.912808 -0.0412595
0.243659 35.1572 375.676 -0.481943 -0.869713 -0.106441
0.197437 35.1983 375.44 -0.466115 -0.878586 -0.104035
0.193903 35.284 375.139 -0.433585 -0.899594 -0.0523035
0.105965 35.3158 374.947 -0.507925 -0.859415 -0.0584602
0.0717597 35.3747 374.69 -0.568721 -0.809466 -0.146021
0.0222092 35.4259 374.451 -0.424249 -0.903834 -0.0556561
-0.0604288 35.4606 374.252 -0.435266 -0.899038 -0.0476863
-0.135917 35.4989 374.044 -0.372579 -0.92677 -0.0477701
-0.243556 35.5211 373.875 -0.36556 -0.930198 -0.0331244
-0.287486 35.5754 373.628 -0.546903 -0.82083 -0.164729
-0.252734 35.6694 373.285 -0.464157 -0.876127 -0.130233
-0.277801 35.7333 373.014 -0.382867 -0.923793 -0.00430496
-0.405012 35.7459 372.869 -0.525778 -0.850569 -0.00948289
-0.41463 35.8177 372.579 -0.567305 -0.823504 -0.00243882
-0.536165 35.8332 372.426 -0.574317 -0.815616 -0.0702181
-0.53647 35.9099 372.124 -0.612485 -0.767434 -0.189492
-0.536393 35.9869 371.821 -0.501309 -0.854384 -0.136812
-0.567995 36.048 371.557 -0.498261 -0.86592 -0.0437945
-0.642262 36.0876 371.345 -0.628703 -0.773832 -0.076923
-0.682262 36.1511 371.086 -0.63923 -0.750924 -0.165826
-0.688899 36.2186 370.795 -0.543269 -0.825829 -0.151208
-0.712646 36.2839 370.52 -0.48739 -0.864802 -0.1207
-0.777459 36.3286 370.296 -0.571937 -0.806325 -0.15076
-0.740406 36.4405 369.936 -0.647587 -0.743663 -0.166122
-0.769474 36.4879 369.676 -0.767021 -0.587713 -0.257435
-0.660296 36.6273 369.219 -0.655775 -0.754073 -0.0365137
6.97991 28.363 408.462 0.203984 -0.270111 0.940973
6.68782 28.294 408.509 0.144164 -0.374513 0.915946
6.4243 28.2384 408.525 0.201306 -0.44661 0.871789
6.17973 28.1815 408.521 0.207703 -0.419001 0.88391
5.89798 28.1272 408.558 0.0867647 -0.329096 0.940302
5.67261 28.0928 408.534 0.139088 -0.251205 0.957889
5.37142 28.0157 408.592 0.194294 -0.248143 0.949039
5.10122 27.9576 408.617 0.0782142 -0.246082 0.966088
4.86243 27.9119 408.609 -0.00778491 -0.293807 0.955833
4.63738 27.8736 408.586 0.00625404 -0.415204 0.909707
4.39219 27.8259 408.585 0.166866 -0.46042 0.871877
4.09457 27.7539 408.64 0.108926 -0.468354 0.876801
3.89452 27.727 408.592 -0.00703402 -0.47444 0.88026
3.62044 27.6643 408.622 0.0255469 -0.488782 0.872032
3.4148 27.6365 408.581 -0.0036143 -0.519872 0.854236
3.20198 27.6046 408.547 0.0414442 -0.450932 0.891595
2.97531 27.5604 408.526 0.0278718 -0.311409 0.949867
2.70723 27.5126 408.553 -0.0337198 -0.337778 0.940622
2.50392 27.4765 408.508 -0.043474 -0.371626 0.927364
2.26978 27.4334 408.498 -0.0633719 -0.400911 0.913922
2.07198 27.4073 408.448 -0.0432313 -0.411784 0.910255
1.84479 27.3709 408.43 -0.0114923 -0.325535 0.94546
1.61437 27.3377 408.417 -0.10343 -0.32692 0.939375
1.42459 27.3052 408.359 -0.171303 -0.360671 0.916827
1.20977 27.2691 408.328 -0.227193 -0.400894 0.887506
1.05797 27.2646 408.23 -0.122452 -0.350192 0.928639
0.809982 27.2145 408.236 -0.0412188 -0.335482 0.941144
0.605794 27.1875 408.194 -0.164853 -0.411125 0.896549
0.420372 27.1631 408.132 -0.284185 -0.41304 0.865238
0.238069 27.1453 408.068 -0.112649 -0.493595 0.862365
0.00803155 27.1015 408.055 -0.0976405 -0.492317 0.864922
-0.164093 27.0833 407.979 -0.231299 -0.444696 0.865301
-0.347128 27.0695 407.916 -0.157437 -0.399762 0.902997
-0.577225 27.0259 407.904 -0.172751 -0.367409 0.913875
-0.767495 27.0049 407.847 -0.226863 -0.399909 0.888035
-0.947223 26.987 407.782 -0.214703 -0.378015 0.90056
-1.12741 26.9656 407.715 -0.320187 -0.336309 0.88565
-1.28268 26.9558 407.619 -0.349459 -0.359302 0.865321
-1.4802 26.9349 407.575 -0.347774 -0.429632 0.833348
-1.63759 26.9272 407.484 -0.271248 -0.489913 0.828499
-1.84265 26.9017 407.446 -0.216182 -0.508099 0.833727
-2.0084 26.8853 407.364 -0.212509 -0.536898 0.816444
-2.21262 26.8575 407.324 -0.235904 -0.514905 0.824149
-2.36828 26.8456 407.232 -0.360772 -0.438654 0.823059
-2.52518 26.841 407.141 -0.305011 -0.429163 0.850169
-2.71445 26.818 407.086 -0.277164 -0.425829 0.861307
-2.90109 26.8005 407.028 -0.348335 -0.472941 0.809315
-3.04469 26.7963 406.922 -0.369684 -0.475181 0.798459
-3.22115 26.7836 406.853 -0.341116 -0.433924 0.833876
-3.39082 26.7641 406.777 -0.375628 -0.425223 0.823462
-3.55562 26.75 406.695 -0.362916 -0.485037 0.795633
-3.71237 26.74 406.603 -0.276316 -0.508556 0.815488
-3.89953 26.7232 406.547 -0.332509 -0.440919 0.833683
-4.06613 26.7111 406.467 -0.402601 -0.445716 0.799531
-4.2293 26.7 406.384 -0.360275 -0.4749 0.802914
-4.38053 26.6954 406.287 -0.446902 -0.470436 0.7609
-4.52987 26.6913 406.189 -0.51825 -0.4617 0.719896
-4.6889 26.6806 406.101 -0.469998 -0.471547 0.746153
-4.82203 26.6793 405.984 -0.417142 -0.481361 0.770899
-5.00762 26.6645 405.926 -0.335182 -0.483457 0.808654
-5.17866 26.6535 405.852 -0.363689 -0.481873 0.7972
-5.35057 26.6453 405.78 -0.499916 -0.511392 0.698972
-5.48312 26.6474 405.662 -0.584715 -0.533001 0.61157
-5.58941 26.6604 405.516 -0.547164 -0.523638 0.653004
-5.7206 26.6522 405.397 -0.484893 -0.4766 0.733301
-5.85603 26.655 405.283 -0.553975 -0.420339 0.718629
-5.99963 26.6602 405.179 -0.5064 -0.437758 0.742918
-6.17764 26.6481 405.113 -0.384283 -0.524948 0.759445
-6.34745 26.6361 405.038 -0.441017 -0.559929 0.701416
-6.47717 26.635 404.918 -0.554983 -0.50675 0.659696
-6.60979 26.6387 404.801 -0.589462 -0.489047 0.642937
-6.74234 26.6425 404.684 -0.565546 -0.472997 0.675598
-6.8854 26.6388 404.579 -0.588759 -0.431401 0.683561
-6.99364 26.6559 404.434 -0.64596 -0.338512 0.684211
-7.12426 26.66 404.315 -0.748158 -0.259776 0.610554
-7.23973 26.6703 404.179 -0.721249 -0.371778 0.584449
-7.37263 26.6736 404.062 -0.530571 -0.518761 0.67036
-7.52003 26.6737 403.963 -0.532007 -0.541965 0.650571
-7.63755 26.6828 403.828 -0.607327 -0.479092 0.633738
-7.77026 26.6867 403.711 -0.687655 -0.3999 0.605979
-7.89574 26.6959 403.587 -0.687263 -0.423976 0.589842
-8.02835 26.6998 403.47 -0.695028 -0.507977 0.508817
-8.11971 26.7238 403.305 -0.727836 -0.54167 0.420535
-8.2202 26.7428 403.153 -0.659962 -0.550176 0.511622
-8.33853 26.7538 403.019 -0.732257 -0.481101 0.482019
-8.43098 26.779 402.856 -0.851886 -0.36072 0.379699
-8.51207 26.806 402.68 -0.85368 -0.322825 0.408673
-8.59529 26.8279 402.506 -0.753913 -0.348783 0.556745
-8.72592 26.8387 402.387 -0.780387 -0.31748 0.538704
-8.81772 26.8633 402.224 -0.901561 -0.290889 0.320269
-8.90439 26.8954 402.052 -0.874499 -0.420752 0.241288
-8.95259 26.9334 401.84 -0.819667 -0.470171 0.327239
-9.07152 26.9438 401.706 -0.840107 -0.419791 0.343505
-9.13462 26.9823 401.509 -0.770046 -0.53698 0.344503
-9.2375 27.0008 401.357 -0.727891 -0.531998 0.43261
-9.3483 27.0131 401.215 -0.834348 -0.432644 0.34159
-9.44833 27.0409 401.058 -0.828753 -0.500461 0.250414
-9.47597 27.0887 400.82 -0.735066 -0.551864 0.393859
-9.60211 27.0975 400.695 -0.842342 -0.388793 0.373229
-9.68193 27.1238 400.516 -0.903887 -0.365723 0.221889
-9.74832 27.1685 400.321 -0.872456 -0.455381 0.17734
-9.80574 27.2024 400.117 -0.836981 -0.519096 0.173213
-9.86018 27.2477 399.908 -0.757599 -0.591657 0.275656
-9.96821 27.2682 399.76 -0.762352 -0.543832 0.350809
-10.0674 27.2885 399.603 -0.889572 -0.424512 0.168675
-10.0976 27.3493 399.364 -0.868211 -0.48685 0.0958512
-10.1391 27.3879 399.142 -0.855653 -0.473662 0.208571
-10.1966 27.4306 398.937 -0.885198 -0.369511 0.282642
-10.3195 27.4464 398.804 -0.813258 -0.496011 0.304277
-10.3745 27.4807 398.597 -0.861093 -0.458167 0.220458
-10.4222 27.5286 398.38 -0.908436 -0.370398 0.193777
-10.492 27.5559 398.187 -0.925791 -0.329704 0.184947
-10.5592 27.5954 397.991 -0.932074 -0.356851 0.0624098
-10.5471 27.6744 397.703 -0.939288 -0.338609 0.0555082
-10.6053 27.7197 397.496 -0.952413 -0.303591 0.0272303
-10.6224 27.7833 397.239 -0.886174 -0.459701 -0.0580506
-10.6185 27.8368 396.966 -0.812741 -0.571206 0.114786
-10.7277 27.8629 396.814 -0.901378 -0.410863 0.136781
-10.7438 27.928 396.558 -0.953898 -0.297863 0.0368381
-10.7813 27.9833 396.325 -0.879261 -0.453107 0.146949
-10.8677 28.016 396.152 -0.836379 -0.496582 0.232114
-10.9122 28.0542 395.929 -0.977804 -0.208246 0.023065
-10.8857 28.138 395.619 -0.987762 -0.151384 0.0375439
-10.975 28.1644 395.448 -0.973928 -0.207741 -0.0911423
-10.8827 28.2842 395.059 -0.940207 -0.310615 -0.139743
-10.9552 28.3256 394.87 -0.885131 -0.465324 -0.00408531
-10.9627 28.3822 394.6 -0.881605 -0.463345 -0.0899117
-10.9451 28.4617 394.3 -0.926359 -0.365526 -0.0908242
-10.9867 28.5106 394.071 -0.924405 -0.295213 -0.241504
-10.848 28.6517 393.627 -0.836181 -0.510417 -0.20069
-10.8831 28.7018 393.391 -0.804621 -0.592564 0.0381131
-10.967 28.7282 393.209 -0.913576 -0.382157 -0.139052
-10.8704 28.8487 392.813 -0.915401 -0.298073 -0.270544
-10.7916 28.9644 392.439 -0.909917 -0.250295 -0.330761
-10.6293 29.0969 391.963 -0.878903 -0.364373 -0.307835
-10.6207 29.1924 391.672 -0.870709 -0.382387 -0.309267
0.176574 35.1707 376.356 -0.322156 -0.942946 0.0840796
0.0905887 35.2033 376.163 -0.446211 -0.894046 -0.0397223
0.0732746 35.2704 375.886 -0.523755 -0.848112 -0.0799187
-0.00602278 35.3064 375.684 -0.57971 -0.810515 -0.0836804
-0.054626 35.3696 375.438 -0.549381 -0.831483 -0.0825579
-0.103367 35.4096 375.205 -0.46269 -0.884694 -0.0568749
-0.161081 35.4566 374.976 -0.47857 -0.870865 -0.112094
-0.187513 35.5195 374.709 -0.464698 -0.883236 -0.0628455
-0.261822 35.5583 374.5 -0.41776 -0.908035 0.0308138
-0.373633 35.5784 374.337 -0.457129 -0.88909 -0.0234799
-0.356444 35.6634 374.016 -0.534406 -0.844587 -0.0329216
-0.459748 35.6878 373.842 -0.659137 -0.747916 -0.078484
-0.490349 35.7489 373.579 -0.624754 -0.768974 -0.135505
-0.554901 35.793 373.357 -0.469604 -0.87605 -0.109582
-0.513699 35.8905 373.005 -0.493247 -0.867119 -0.0693693
-0.633635 35.9067 372.851 -0.44059 -0.897707 0.00168359
-0.689604 35.9528 372.619 -0.457659 -0.888214 -0.0402918
-0.772641 35.9903 372.417 -0.63128 -0.765578 -0.124001
-0.7871 36.0542 372.137 -0.614503 -0.766671 -0.186017
-0.758984 36.1513 371.795 -0.511796 -0.848327 -0.135669
-0.813068 36.2012 371.559 -0.510275 -0.858464 -0.051573
-0.879913 36.2443 371.338 -0.570245 -0.815499 -0.0989064
-0.915408 36.3009 371.08 -0.577065 -0.808792 -0.113364
-0.974323 36.3506 370.847 -0.610733 -0.778744 -0.143398
-0.91028 36.4616 370.463 -0.646656 -0.738279 -0.19178
-0.944512 36.5149 370.206 -0.679419 -0.702099 -0.213182
-0.853792 36.6352 369.791 -0.731003 -0.625737 -0.272191
-0.829013 36.7369 369.446 -0.671063 -0.714126 -0.199246
6.946 28.5342 408.506 0.23865 -0.201725 0.949923
6.66315 28.4694 408.543 0.165857 -0.140805 0.976046
6.36134 28.3908 408.6 0.133052 -0.159735 0.978152
6.07748 28.3421 408.638 0.101241 -0.335142 0.936712
5.86698 28.2995 408.598 0.0518441 -0.392502 0.918289
5.61915 28.2508 408.599 0.169303 -0.37606 0.910997
5.3072 28.1723 408.668 0.199809 -0.385838 0.90067
5.07233 28.1295 408.655 0.122558 -0.374071 0.919266
4.78187 28.0609 408.702 0.0996805 -0.377614 0.920582
4.52617 28.0082 408.712 0.0961283 -0.416697 0.903949
4.25412 27.9479 408.74 0.148939 -0.436837 0.887125
4.02308 27.9061 408.725 0.072006 -0.420244 0.90455
3.77817 27.8589 408.723 0.00535604 -0.432421 0.901656
3.58402 27.8275 408.668 0.0348956 -0.44784 0.893433
3.32518 27.7789 408.683 -0.0688492 -0.42971 0.900338
3.14812 27.7615 408.613 -0.0981688 -0.396562 0.912744
2.92124 27.7307 408.592 0.0457793 -0.355415 0.933587
2.68388 27.6798 408.585 -0.0116658 -0.30687 0.95168
2.478 27.65 408.543 -0.0253979 -0.344681 0.938376
2.22486 27.5936 408.554 -0.0506754 -0.382526 0.922554
2.03655 27.5761 408.494 -0.131979 -0.328405 0.935271
1.82116 27.54 408.463 -0.0312147 -0.298465 0.95391
1.59137 27.5005 408.449 -0.0854699 -0.323329 0.942419
1.38673 27.4664 408.407 -0.136922 -0.393974 0.908866
1.1855 27.4412 408.361 -0.268675 -0.343624 0.899853
1.01528 27.4216 408.284 -0.11211 -0.370899 0.921881
0.756966 27.37 408.301 0.00657627 -0.382312 0.92401
0.552183 27.3423 408.26 -0.191087 -0.370133 0.909113
0.365445 27.3238 408.2 -0.179074 -0.373344 0.910246
0.133239 27.2812 408.189 -0.125392 -0.423389 0.897228
-0.033552 27.2712 408.108 -0.194612 -0.393437 0.898518
-0.237458 27.2444 408.066 -0.268959 -0.399625 0.876334
-0.405784 27.2209 407.987 -0.173033 -0.454721 0.873664
-0.601821 27.2011 407.937 -0.165005 -0.316384 0.93417
-0.790996 27.173 407.879 -0.279501 -0.241811 0.929197
-0.970412 27.1543 407.815 -0.280426 -0.313011 0.907406
-1.16175 27.1367 407.759 -0.310458 -0.301022 0.901666
-1.35383 27.1074 407.705 -0.283264 -0.38305 0.879223
-1.5311 27.0893 407.636 -0.258159 -0.508688 0.821335
-1.71564 27.0727 407.576 -0.241099 -0.495331 0.834577
-1.89835 27.0547 407.514 -0.210008 -0.420483 0.882661
-2.10293 27.0253 407.474 -0.272479 -0.42559 0.862919
-2.25008 27.0226 407.371 -0.363554 -0.393708 0.844288
-2.4159 27.0133 407.292 -0.380358 -0.371156 0.847096
-2.60533 26.9944 407.237 -0.302376 -0.450129 0.84021
-2.76842 26.9692 407.152 -0.232612 -0.473305 0.849632
-2.96311 26.948 407.102 -0.353633 -0.457932 0.815623
-3.10715 26.942 406.998 -0.409376 -0.46624 0.78424
-3.28106 26.9315 406.926 -0.338063 -0.488818 0.80422
-3.43532 26.9278 406.832 -0.321308 -0.411078 0.853098
-3.64013 26.9048 406.795 -0.340589 -0.4322 0.834986
-3.79292 26.8933 406.699 -0.349032 -0.508085 0.787417
-3.95744 26.884 406.618 -0.32213 -0.485164 0.812926
-4.12056 26.8724 406.534 -0.378523 -0.411702 0.828989
-4.28848 26.861 406.456 -0.389968 -0.416893 0.821051
-4.45977 26.842 406.382 -0.461406 -0.464906 0.755623
-4.59472 26.845 406.267 -0.505895 -0.463745 0.727331
-4.73324 26.8483 406.157 -0.453969 -0.481384 0.749788
-4.91201 26.8358 406.091 -0.389747 -0.532853 0.751109
-5.04736 26.8274 405.977 -0.343131 -0.473159 0.811408
-5.22261 26.8108 405.908 -0.37031 -0.38663 0.844623
-5.3744 26.8066 405.812 -0.525863 -0.33209 0.783061
-5.50979 26.8101 405.698 -0.667324 -0.282234 0.689219
-5.64731 26.8122 405.587 -0.636096 -0.375533 0.67406
-5.78791 26.8171 405.479 -0.536409 -0.480294 0.693962
-5.94026 26.814 405.384 -0.508503 -0.515476 0.689717
-6.0822 26.8059 405.277 -0.377825 -0.55731 0.739361
-6.25773 26.7881 405.209 -0.346324 -0.54762 0.76169
-6.39174 26.7902 405.093 -0.543376 -0.427361 0.722568
-6.52448 26.795 404.977 -0.616337 -0.355093 0.702878
-6.66266 26.7956 404.866 -0.635805 -0.385314 0.668794
-6.77798 26.8092 404.73 -0.621415 -0.408094 0.668806
-6.91066 26.813 404.613 -0.676456 -0.377427 0.63242
-7.02103 26.8279 404.471 -0.698352 -0.343787 0.627785
-7.15792 26.8327 404.359 -0.638036 -0.398928 0.658609
-7.29063 26.8365 404.242 -0.575653 -0.491165 0.653743
-7.44416 26.8269 404.149 -0.51001 -0.5144 0.689408
-7.57985 26.8293 404.036 -0.609785 -0.48049 0.630311
-7.69555 26.8394 403.9 -0.674899 -0.450735 0.584251
-7.81002 26.8552 403.762 -0.656073 -0.444021 0.610257
-7.93295 26.8624 403.635 -0.623968 -0.3924 0.675785
-8.07663 26.861 403.53 -0.710639 -0.348428 0.61122
-8.18459 26.8735 403.386 -0.781477 -0.4214 0.460125
-8.2868 26.8923 403.233 -0.726892 -0.492833 0.478271
-8.39394 26.9082 403.088 -0.809587 -0.413161 0.416973
-8.45489 26.949 402.889 -0.879134 -0.317495 0.355415
-8.54584 26.969 402.724 -0.850839 -0.325773 0.412244
-8.64899 26.9962 402.573 -0.754834 -0.406991 0.514378
-8.76425 27.0064 402.436 -0.757006 -0.386063 0.527159
-8.86021 27.0263 402.278 -0.820898 -0.369963 0.435033
-8.96777 27.0437 402.13 -0.877206 -0.398132 0.268328
-9.01073 27.0835 401.913 -0.819197 -0.510886 0.260598
-9.10741 27.1119 401.752 -0.756197 -0.500489 0.421518
-9.23346 27.1198 401.627 -0.82374 -0.43989 0.357701
-9.29258 27.1631 401.425 -0.74835 -0.565191 0.347176
-9.38984 27.1802 401.267 -0.781389 -0.455065 0.427022
-9.47176 27.2049 401.09 -0.896927 -0.302196 0.322799
-9.56396 27.2277 400.927 -0.86161 -0.405252 0.305612
-9.62888 27.2702 400.732 -0.844512 -0.359838 0.396631
-9.71896 27.2966 400.564 -0.908584 -0.219704 0.355253
-9.79743 27.3233 400.383 -0.911885 -0.296314 0.284014
-9.87432 27.3499 400.201 -0.863867 -0.446091 0.233958
-9.96364 27.3825 400.033 -0.792539 -0.568513 0.220623
-10.018 27.428 399.823 -0.812278 -0.494171 0.309837
-10.0932 27.4529 399.64 -0.899822 -0.334488 0.280068
-10.1724 27.4813 399.458 -0.939991 -0.328438 0.0924396
-10.1766 27.5447 399.194 -0.898472 -0.421991 0.121126
-10.2703 27.5729 399.025 -0.785989 -0.518523 0.336682
-10.3594 27.5985 398.858 -0.851101 -0.418621 0.316835
-10.4155 27.6366 398.653 -0.904418 -0.391134 0.170417
-10.4817 27.6754 398.453 -0.876805 -0.463154 0.129232
-10.5173 27.7355 398.221 -0.906791 -0.351645 0.232543
-10.6095 27.7632 398.056 -0.96864 -0.232631 0.0872917
-10.598 27.8372 397.767 -0.928744 -0.369553 0.0294192
-10.6836 27.8631 397.593 -0.858143 -0.493414 0.141895
-10.755 27.8969 397.402 -0.898952 -0.436406 -0.0378781
-10.7324 27.9725 397.103 -0.832585 -0.553651 -0.0164853
-10.769 28.033 396.868 -0.837863 -0.54491 0.0325298
-10.7808 28.0963 396.606 -0.92348 -0.369232 0.104176
-10.8943 28.1086 396.464 -0.900022 -0.400242 0.17253
-10.8933 28.1746 396.186 -0.929726 -0.360326 0.0759878
-10.9236 28.239 395.945 -0.987403 -0.157952 -0.00925616
-10.9107 28.3126 395.653 -0.973667 -0.206044 0.0975658
-10.9995 28.3386 395.481 -0.978316 -0.206891 -0.00969301
-10.9583 28.4217 395.153 -0.961545 -0.26359 -0.0771442
-11.0135 28.4698 394.944 -0.908744 -0.413098 0.0594603
-11.0289 28.5221 394.689 -0.912736 -0.38469 -0.137572
-10.9827 28.6304 394.349 -0.892931 -0.437724 -0.105221
-11.0226 28.6829 394.118 -0.947175 -0.292038 -0.132564
-11.0125 28.7576 393.827 -0.899476 -0.382296 -0.211642
-10.9724 28.8487 393.499 -0.808739 -0.586053 -0.0498315
-10.993 28.9097 393.244 -0.964918 -0.24107 -0.104013
-10.9365 29.0144 392.897 -0.968825 -0.101097 -0.22618
-10.8714 29.1127 392.538 -0.944897 -0.177189 -0.27527
-10.8084 29.2358 392.183 -0.903374 -0.319135 -0.286476
-10.7103 29.3356 391.782 -0.899119 -0.299963 -0.318759
-10.5411 29.4926 391.298 -0.916341 -0.181464 -0.356916
-0.016816 35.2714 376.594 -0.290542 -0.954315 0.0697735
-0.135698 35.2881 376.44 -0.46066 -0.884107 -0.0784047
-0.129948 35.3668 376.136 -0.552212 -0.824645 -0.122562
-0.16643 35.4244 375.882 -0.531859 -0.844375 -0.0644753
-0.21586 35.4756 375.644 -0.470552 -0.881511 -0.0389864
-0.324051 35.4972 375.477 -0.432271 -0.901487 -0.0215211
-0.387837 35.5412 375.256 -0.558424 -0.820178 -0.124376
-0.363183 35.6298 374.927 -0.494727 -0.863386 -0.0990443
-0.466618 35.6541 374.753 -0.37634 -0.926062 0.0278948
-0.537827 35.6945 374.541 -0.529456 -0.845508 -0.0692351
-0.573309 35.7531 374.284 -0.543808 -0.831237 -0.115404
-0.592446 35.82 374.007 -0.553514 -0.832312 -0.029654
-0.673324 35.8558 373.806 -0.565253 -0.824913 0.00270779
-0.757327 35.89 373.608 -0.64053 -0.757751 -0.12464
-0.745034 35.9738 373.29 -0.515007 -0.853564 -0.078715
-0.874327 35.9837 373.15 -0.382538 -0.923926 0.00505324
-0.90417 36.0463 372.884 -0.538046 -0.834556 -0.118417
-0.877279 36.1394 372.547 -0.547521 -0.832942 -0.0801772
-0.990123 36.1568 372.386 -0.670036 -0.73402 -0.110758
-0.997564 36.2361 372.088 -0.649672 -0.741356 -0.168279
-0.997986 36.3073 371.79 -0.502542 -0.86156 -0.0718682
-1.07679 36.3404 371.587 -0.548347 -0.830042 -0.101711
-1.052 36.4349 371.249 -0.61491 -0.780295 -0.114128
-1.10658 36.4876 371.011 -0.722312 -0.682814 -0.109682
-1.14476 36.5427 370.756 -0.750553 -0.633811 -0.186958
-1.0875 36.6393 370.388 -0.702826 -0.676309 -0.220547
-1.1216 36.7173 370.113 -0.705306 -0.656308 -0.26796
-1.04153 36.8309 369.712 -0.66294 -0.699366 -0.267205
-0.999127 36.9285 369.355 -0.638961 -0.738603 -0.214925
6.90313 28.7014 408.56 0.21352 -0.298669 0.930165
6.68556 28.6668 408.527 0.180469 -0.168785 0.968991
6.33643 28.5714 408.634 0.211111 -0.0934896 0.972981
6.05427 28.5068 408.67 0.0973344 -0.170012 0.980623
5.78109 28.4463 408.697 0.0519104 -0.293229 0.954632
5.53134 28.3966 408.7 0.181807 -0.357957 0.915867
5.23661 28.326 408.751 0.162751 -0.33503 0.928045
4.99364 28.2772 408.747 0.112581 -0.338061 0.934366
4.73206 28.2232 408.763 0.11467 -0.312219 0.943064
4.50169 28.1816 408.745 0.0943241 -0.23521 0.967357
4.22948 28.1224 408.774 0.0684422 -0.200256 0.97735
3.9943 28.0799 408.762 0.025161 -0.228444 0.973232
3.73986 28.0271 408.772 -0.00176271 -0.289914 0.957051
3.5 27.9915 408.767 -0.0277398 -0.360513 0.932342
3.29435 27.9518 408.724 -0.127691 -0.33184 0.934654
3.10737 27.9332 408.661 -0.0955235 -0.410449 0.906866
2.85601 27.8797 408.67 0.0228663 -0.489838 0.871513
2.65746 27.8532 408.62 0.0271102 -0.375818 0.926297
2.36429 27.7821 408.673 0.010587 -0.398229 0.917225
2.19942 27.7716 408.588 -0.0978321 -0.44174 0.891793
1.97604 27.7308 408.567 -0.126508 -0.388718 0.91263
1.78299 27.7005 408.511 0.00117494 -0.404218 0.914662
1.5122 27.6488 408.542 -0.0170859 -0.409268 0.912254
1.32507 27.6321 408.481 -0.19555 -0.407277 0.892124
1.14484 27.613 408.413 -0.209798 -0.378266 0.90161
0.926223 27.5811 408.387 -0.0668102 -0.399971 0.914089
0.720125 27.5442 408.348 -0.0427126 -0.358499 0.932553
0.512259 27.5134 408.311 -0.209134 -0.261506 0.942273
0.327858 27.4909 408.248 -0.149212 -0.253725 0.955698
0.109078 27.4526 408.222 -0.201001 -0.274712 0.940283
-0.0597505 27.4418 408.143 -0.222402 -0.3146 0.922802
-0.290718 27.3995 408.132 -0.21181 -0.336995 0.917372
-0.457006 27.3913 408.049 -0.329739 -0.330878 0.88419
-0.626776 27.3789 407.971 -0.233069 -0.346671 0.90857
-0.827348 27.3485 407.928 -0.202571 -0.318091 0.926166
-1.03433 27.3237 407.89 -0.291815 -0.313763 0.903547
-1.18047 27.3131 407.787 -0.228578 -0.301977 0.925506
-1.41507 27.2793 407.781 -0.178958 -0.292453 0.939386
-1.60692 27.2478 407.727 -0.310631 -0.364772 0.877753
-1.76013 27.2394 407.631 -0.345189 -0.356596 0.86815
-1.92612 27.2203 407.551 -0.230127 -0.358762 0.904616
-2.12698 27.1971 407.507 -0.340012 -0.319456 0.8845
-2.27276 27.1876 407.403 -0.394955 -0.344268 0.851757
-2.47476 27.1641 407.362 -0.27564 -0.442628 0.853289
-2.63312 27.1555 407.273 -0.286603 -0.366559 0.885152
-2.83964 27.1276 407.238 -0.306611 -0.302786 0.902391
-2.98975 27.1233 407.138 -0.393242 -0.279213 0.876014
-3.17245 27.1086 407.076 -0.416734 -0.304819 0.856398
-3.3265 27.0998 406.982 -0.442343 -0.370556 0.816714
-3.47618 27.0861 406.883 -0.310193 -0.384922 0.869261
-3.67021 27.059 406.833 -0.282038 -0.362591 0.888247
-3.83772 27.047 406.755 -0.402884 -0.381933 0.831752
-4.00398 27.0391 406.675 -0.415682 -0.435456 0.798491
-4.14814 27.0339 406.571 -0.375131 -0.408045 0.832331
-4.33602 27.0165 406.515 -0.355224 -0.386888 0.85096
-4.48592 27.014 406.417 -0.490732 -0.368407 0.789594
-4.63439 27.0066 406.317 -0.487433 -0.46331 0.740104
-4.80581 26.9955 406.243 -0.371501 -0.553249 0.745589
-4.95999 26.9862 406.151 -0.458833 -0.493021 0.73919
-5.09325 26.9904 406.034 -0.449228 -0.403806 0.796953
-5.26776 26.9743 405.964 -0.438765 -0.333745 0.834326
-5.40327 26.9793 405.85 -0.580246 -0.252491 0.774315
-5.54911 26.9762 405.748 -0.602285 -0.243054 0.76038
-5.68664 26.9787 405.637 -0.56314 -0.316382 0.763398
-5.84293 26.9696 405.546 -0.526796 -0.398049 0.751028
-5.97605 26.9732 405.43 -0.478495 -0.433954 0.763365
-6.14919 26.958 405.359 -0.41532 -0.442333 0.79489
-6.29042 26.9588 405.251 -0.520606 -0.396276 0.756264
-6.42312 26.9625 405.135 -0.63125 -0.306776 0.712329
-6.55576 26.9662 405.018 -0.604266 -0.293989 0.740563
-6.7017 26.963 404.916 -0.637735 -0.297319 0.71056
-6.83184 26.9677 404.797 -0.661148 -0.335289 0.671167
-6.96526 26.9763 404.68 -0.690178 -0.405952 0.599047
-7.06771 26.9907 404.53 -0.609239 -0.505002 0.611393
-7.22804 26.9796 404.444 -0.511472 -0.541074 0.667559
-7.36065 26.9831 404.327 -0.555204 -0.485109 0.675587
-7.48946 26.9882 404.206 -0.573513 -0.411639 0.708263
-7.62215 26.992 404.089 -0.660712 -0.383065 0.64554
-7.74106 27.0035 403.957 -0.669546 -0.488215 0.559781
-7.87016 27.0141 403.835 -0.65251 -0.552648 0.518471
-7.97161 27.0288 403.684 -0.615842 -0.503336 0.606128
-8.1073 27.03 403.571 -0.61754 -0.438623 0.652882
-8.23932 27.034 403.454 -0.750422 -0.393686 0.530922
-8.33482 27.0589 403.294 -0.794298 -0.408085 0.450064
-8.42413 27.082 403.128 -0.86941 -0.323847 0.373162
-8.50367 27.1162 402.95 -0.873062 -0.341562 0.347992
-8.59723 27.1374 402.789 -0.793961 -0.421135 0.438487
-8.7017 27.1556 402.638 -0.778605 -0.375178 0.503007
-8.7989 27.1726 402.482 -0.755814 -0.396934 0.520758
-8.92049 27.1814 402.352 -0.770757 -0.422336 0.477038
-9.00866 27.2068 402.183 -0.839181 -0.396181 0.372581
-9.11608 27.2208 402.038 -0.862683 -0.44614 0.238195
-9.15047 27.2758 401.807 -0.764178 -0.530915 0.36628
-9.27542 27.2838 401.68 -0.768145 -0.412604 0.489603
-9.38496 27.2974 401.538 -0.865109 -0.414103 0.283028
-9.41712 27.3402 401.304 -0.813172 -0.507561 0.28484
-9.53096 27.3731 401.165 -0.795848 -0.49701 0.345842
-9.60225 27.4001 400.977 -0.894631 -0.359003 0.265994
-9.64961 27.4375 400.76 -0.899558 -0.319829 0.297497
-9.74315 27.4685 400.597 -0.841794 -0.371571 0.391558
-9.84217 27.4918 400.44 -0.837714 -0.357765 0.412599
-9.95319 27.5035 400.297 -0.838307 -0.398309 0.372277
-10.0279 27.5357 400.114 -0.914051 -0.349896 0.205144
-10.053 27.5935 399.869 -0.897271 -0.381131 0.222809
-10.1542 27.6088 399.716 -0.852873 -0.435926 0.287362
-10.2063 27.6579 399.503 -0.93331 -0.323465 0.155896
-10.2759 27.6916 399.311 -0.921673 -0.351293 0.164658
-10.327 27.7462 399.097 -0.860648 -0.417705 0.291216
-10.4031 27.7703 398.915 -0.876111 -0.322622 0.35825
-10.5094 27.7847 398.764 -0.899793 -0.351165 0.25895
-10.561 27.8373 398.551 -0.937033 -0.343829 0.061243
-10.5474 27.9101 398.261 -0.928688 -0.328872 0.171411
-10.651 27.9255 398.108 -0.935776 -0.286989 0.204844
-10.6961 27.9731 397.887 -0.921903 -0.377247 0.0882007
-10.7416 28.0188 397.666 -0.872848 -0.453367 0.180538
-10.7863 28.0673 397.443 -0.967376 -0.234924 0.0948397
-10.8324 28.1054 397.222 -0.963773 -0.264951 0.0307014
-10.8698 28.1676 396.991 -0.889221 -0.450323 -0.0805893
-10.8246 28.2602 396.662 -0.841665 -0.536706 0.0595549
-10.9254 28.279 396.505 -0.917541 -0.35223 0.184534
-10.9433 28.3456 396.249 -0.979141 -0.203168 -0.002509
-10.9478 28.4106 395.978 -0.968233 -0.249694 -0.0133308
-10.9786 28.4681 395.737 -0.937077 -0.338637 0.0849266
-11.0291 28.5186 395.521 -0.961628 -0.272467 0.0321417
-11.03 28.5881 395.244 -0.971484 -0.236846 -0.011048
-11.0634 28.6304 395.006 -0.926174 -0.350046 0.140248
-11.1541 28.6607 394.836 -0.935911 -0.338851 -0.0961806
-11.0864 28.7664 394.476 -0.930502 -0.331269 -0.156288
-11.0829 28.8391 394.194 -0.952568 -0.30196 -0.0378597
-11.0975 28.8985 393.932 -0.962477 -0.239889 -0.12685
-11.0536 28.9895 393.6 -0.953703 -0.249609 -0.167771
-10.9882 29.1014 393.242 -0.977718 -0.151555 -0.145251
-10.9549 29.1711 392.922 -0.955875 -0.205077 -0.210348
-10.8997 29.2874 392.576 -0.937816 -0.261567 -0.228218
-10.8705 29.3734 392.26 -0.952342 -0.17121 -0.252452
-10.7354 29.5125 391.817 -0.941934 -0.11265 -0.31634
-10.6105 29.6468 391.385 -0.946088 -0.116506 -0.302231
-0.27011 35.3429 376.903 -0.331543 -0.940492 0.0745225
-0.330178 35.3886 376.679 -0.533066 -0.838901 -0.109933
-0.307835 35.4757 376.355 -0.550938 -0.820976 -0.149883
-0.38992 35.5104 376.156 -0.435766 -0.897967 -0.0613532
-0.467876 35.5472 375.953 -0.373811 -0.925813 -0.0560042
-0.510726 35.6017 375.707 -0.416278 -0.907185 -0.0610508
-0.550427 35.6579 375.457 -0.543498 -0.834952 -0.0863993
-0.64533 35.6839 375.275 -0.496143 -0.861571 -0.107414
-0.64069 35.765 374.969 -0.419192 -0.907594 -0.0234917
-0.767715 35.7774 374.824 -0.496428 -0.866626 -0.0501849
-0.768573 35.8534 374.526 -0.561023 -0.807995 -0.179989
-0.754967 35.9369 374.209 -0.471329 -0.876684 -0.096299
-0.86192 35.9595 374.04 -0.460389 -0.887628 -0.0126091
-0.878675 36.0278 373.76 -0.570297 -0.819532 -0.0559302
-0.991931 36.0473 373.597 -0.51989 -0.853969 -0.021232
-1.01659 36.1117 373.327 -0.500645 -0.865543 0.0137451
-1.12791 36.1323 373.162 -0.622317 -0.770359 -0.138814
-1.09937 36.2238 372.825 -0.578491 -0.800211 -0.158144
-1.10425 36.2879 372.536 -0.577396 -0.813699 -0.067147
-1.16488 36.3451 372.301 -0.668927 -0.73675 -0.0986741
-1.21606 36.3948 372.063 -0.573892 -0.81606 -0.0685116
-1.26289 36.45 371.816 -0.645006 -0.753374 -0.128041
-1.25432 36.5328 371.502 -0.684904 -0.703648 -0.189171
-1.22419 36.6248 371.161 -0.635283 -0.763412 -0.116691
-1.26214 36.675 370.91 -0.729972 -0.672194 -0.123679
-1.29958 36.7467 370.643 -0.742852 -0.642742 -0.187225
-1.26192 36.8391 370.295 -0.733837 -0.639744 -0.228497
-1.24222 36.9198 369.97 -0.763046 -0.591564 -0.260408
-1.19761 37.0259 369.606 -0.697187 -0.679709 -0.227875
6.84517 28.8615 408.629 0.111644 -0.257046 0.959929
6.66084 28.8435 408.561 0.161054 -0.327002 0.931199
6.31829 28.7547 408.662 0.271838 -0.234839 0.933249
6.02642 28.6807 408.707 0.166846 -0.192799 0.966949
5.74801 28.6166 408.74 0.118251 -0.233962 0.965028
5.4904 28.5613 408.752 0.139575 -0.243071 0.959914
5.2126 28.4961 408.783 0.140569 -0.272353 0.951874
4.95243 28.4486 408.798 0.0814726 -0.269933 0.959426
4.70437 28.3978 408.8 0.0376477 -0.226812 0.973211
4.46491 28.354 408.793 0.0609267 -0.20953 0.975902
4.20278 28.3003 408.81 0.0894243 -0.232526 0.96847
3.94754 28.2436 408.82 0.0683483 -0.24584 0.966898
3.69236 28.1894 408.83 0.0427976 -0.271334 0.961533
3.46734 28.1521 408.809 -0.0882322 -0.284254 0.95468
3.26971 28.1293 408.758 -0.0758372 -0.247358 0.965952
2.97898 28.0566 408.807 7.44639e-005 -0.383099 0.923707
2.79353 28.0362 408.744 -0.0732351 -0.519693 0.851209
2.59321 28.0088 408.697 0.0466752 -0.406725 0.912358
2.33679 27.9556 408.71 -0.00030329 -0.286924 0.957953
2.12423 27.9303 408.679 -0.174612 -0.353152 0.919127
1.93129 27.9005 408.621 -0.0894495 -0.347635 0.933354
1.69011 27.8597 408.62 -0.0414909 -0.206621 0.977541
1.48762 27.8225 408.575 -0.102129 -0.20383 0.973665
1.28492 27.792 408.532 -0.254696 -0.280243 0.925524
1.10039 27.7683 408.467 -0.157033 -0.383231 0.910206
0.880987 27.7371 408.443 -0.0998531 -0.406202 0.908311
0.691319 27.715 408.386 -0.15035 -0.38154 0.912043
0.493166 27.6871 408.338 -0.202065 -0.29559 0.9337
0.3006 27.664 408.284 -0.135204 -0.266208 0.954386
0.0657677 27.6255 408.276 -0.157208 -0.333284 0.929628
-0.117885 27.5918 408.211 -0.194815 -0.338073 0.920735
-0.314949 27.5725 408.165 -0.243261 -0.288332 0.926115
-0.480596 27.558 408.081 -0.305984 -0.34519 0.887253
-0.695563 27.5296 408.054 -0.232918 -0.444688 0.864871
-0.851358 27.5198 407.961 -0.204276 -0.365974 0.907929
-1.05747 27.4891 407.922 -0.300629 -0.283902 0.910506
-1.22015 27.4809 407.837 -0.225435 -0.311983 0.922955
-1.43781 27.4427 407.812 -0.130593 -0.285934 0.949309
-1.61827 27.4199 407.746 -0.342717 -0.26933 0.900003
-1.79303 27.4079 407.674 -0.346861 -0.273177 0.897252
-1.99741 27.3862 407.635 -0.292072 -0.278321 0.915003
