-0.967878 21.9527 389.321 -0.299025 -0.819217 -0.489354
-0.856223 21.992 389.143 -0.241441 -0.831022 -0.501108
-0.691963 22.0425 388.964 -0.249199 -0.85845 -0.448289
-0.657165 22.0653 388.785 -0.240926 -0.866437 -0.437312
-0.421017 22.131 388.607 -0.18476 -0.889074 -0.418821
-0.148174 22.2046 388.43 -0.173319 -0.90208 -0.395238
-0.104254 22.2293 388.25 -0.159926 -0.830149 -0.534113
-0.974501 21.1103 401.252 -0.208363 -0.915268 0.344773
-1.1978 21.079 401.061 -0.218268 -0.9035 0.368845
-1.33678 21.0653 400.874 -0.291296 -0.914805 0.279784
-1.44708 21.0576 400.688 -0.312061 -0.896694 0.31394
-1.65177 21.0302 400.499 -0.277138 -0.891168 0.359185
-1.7912 21.0164 400.312 -0.290952 -0.873533 0.390239
-2.03003 20.976 400.12 -0.345938 -0.896501 0.276791
-2.11823 20.9782 399.936 -0.326799 -0.939094 0.106323
-2.11781 20.9943 399.757 -0.302758 -0.952247 0.0395239
-2.1173 21.0096 399.581 -0.304224 -0.946588 0.106854
-2.36955 20.9722 399.386 -0.283251 -0.943953 0.169475
-2.38496 20.9846 399.206 -0.25955 -0.958888 0.11475
-2.47553 20.9808 399.022 -0.261065 -0.959916 0.102011
-2.48417 20.9946 398.842 -0.314436 -0.939776 0.133985
-2.60934 20.9837 398.657 -0.329336 -0.92527 0.188186
-2.64876 20.9908 398.476 -0.305157 -0.94595 0.109808
-2.76127 20.9826 398.292 -0.285857 -0.956034 0.065462
-2.77836 20.9944 398.111 -0.313731 -0.945403 0.0882387
-2.87691 20.9892 397.928 -0.358711 -0.92708 0.108855
-2.93031 20.9934 397.745 -0.400545 -0.90872 0.117437
-2.98577 20.997 397.565 -0.381611 -0.923472 -0.0396657
-2.92797 21.0248 397.387 -0.327028 -0.940354 -0.0937395
-2.97098 21.031 397.206 -0.310103 -0.950665 0.00845811
-2.96981 21.0468 397.026 -0.322836 -0.945226 0.0482083
-3.03171 21.0492 396.844 -0.372553 -0.924236 0.0836179
-3.12378 21.0452 396.661 -0.412584 -0.907915 0.0739236
-3.12265 21.0609 396.482 -0.469254 -0.881419 0.0538651
-3.12149 21.0766 396.303 -0.463006 -0.883718 -0.0683255
-3.07652 21.1036 396.125 -0.361514 -0.918116 -0.162391
-3.13337 21.1049 395.944 -0.270375 -0.958292 -0.0925923
-3.17614 21.1114 395.762 -0.229662 -0.973131 -0.0164924
-3.17437 21.1272 395.583 -0.285312 -0.958372 -0.0109236
-3.20499 21.1361 395.403 -0.357501 -0.932263 -0.0554885
-3.20337 21.152 395.223 -0.347574 -0.937446 -0.0197016
-3.20178 21.1678 395.044 -0.369172 -0.926427 -0.0737912
-3.18276 21.1872 394.865 -0.369209 -0.920625 -0.127018
-3.1552 21.2085 394.686 -0.345434 -0.93703 -0.0514914
-3.17953 21.2188 394.506 -0.345273 -0.938306 -0.019205
-3.22776 21.2241 394.325 -0.321288 -0.946454 -0.0315952
-3.24002 21.237 394.146 -0.300364 -0.945613 -0.124891
-3.2495 21.2505 393.966 -0.270798 -0.952367 -0.140231
-3.23574 21.2688 393.787 -0.274216 -0.959843 -0.059219
-3.24573 21.2822 393.607 -0.315933 -0.948221 -0.0326069
-3.26532 21.2936 393.427 -0.329623 -0.931425 -0.154258
-3.26227 21.3097 393.248 -0.294918 -0.893584 -0.338425
-3.07086 21.3656 393.073 -0.264224 -0.916709 -0.299716
-3.00559 21.3948 392.896 -0.309672 -0.891465 -0.330746
-2.82805 21.4479 392.72 -0.33536 -0.839525 -0.42747
-2.72024 21.4861 392.544 -0.301301 -0.921249 -0.246002
-2.71781 21.5021 392.364 -0.277346 -0.949312 -0.147937
-2.69979 21.5214 392.185 -0.260441 -0.952555 -0.157511
-2.69709 21.5376 392.004 -0.286216 -0.942714 -0.17138
-2.70025 21.5524 391.825 -0.311425 -0.914039 -0.259899
-2.67207 21.5724 391.646 -0.283766 -0.937473 -0.201546
-2.56541 21.612 391.469 -0.316485 -0.932469 -0.174183
-2.55383 21.6299 391.289 -0.332483 -0.913806 -0.233268
-2.47448 21.6623 391.111 -0.288845 -0.904036 -0.315098
-2.36317 21.7014 390.934 -0.288091 -0.904489 -0.314489
-2.32448 21.7252 390.755 -0.281892 -0.89838 -0.336823
-2.14523 21.7787 390.578 -0.276125 -0.803656 -0.527155
-1.9634 21.8327 390.402 -0.263317 -0.854126 -0.448478
-1.78678 21.8857 390.225 -0.250841 -0.931027 -0.26508
-1.67822 21.9244 390.047 -0.31566 -0.908313 -0.274456
-1.67531 21.9405 389.867 -0.319921 -0.914332 -0.248289
-1.67175 21.9568 389.687 -0.277727 -0.885767 -0.371866
-1.40146 22.0299 389.51 -0.293327 -0.826122 -0.481126
-1.36308 22.0534 389.332 -0.291511 -0.882082 -0.370072
-1.27862 22.0871 389.152 -0.225251 -0.837945 -0.497102
-0.891591 22.1848 388.978 -0.216182 -0.885526 -0.411229
-0.887321 22.2013 388.796 -0.256615 -0.919098 -0.299011
-0.817592 22.2315 388.622 -0.2518 -0.865925 -0.432169
-0.812962 22.2485 388.437 -0.190214 -0.895315 -0.402777
-0.523709 22.3255 388.26 -0.184671 -0.845233 -0.501476
-0.376497 22.3724 388.081 -0.184174 -0.808109 -0.5595
-1.63917 21.1863 400.877 -0.260205 -0.941787 0.212909
-1.84175 21.1592 400.687 -0.237518 -0.920041 0.311623
-2.00057 21.1413 400.5 -0.250543 -0.919458 0.303026
-2.14579 21.1311 400.315 -0.324983 -0.880191 0.345903
-2.23006 21.1288 400.131 -0.34028 -0.879075 0.333821
-2.38099 21.1077 399.941 -0.367583 -0.912651 0.178748
-2.47354 21.1036 399.76 -0.347891 -0.936414 0.0458318
-2.54892 21.1031 399.576 -0.266066 -0.955109 0.130292
-2.55351 21.1177 399.396 -0.306512 -0.919857 0.244772
-2.75934 21.0897 399.207 -0.339456 -0.928756 0.148936
-2.75871 21.1054 399.027 -0.31545 -0.948939 -0.00226357
-2.77063 21.1182 398.847 -0.32824 -0.939014 0.102525
-2.87725 21.1111 398.663 -0.345715 -0.902683 0.256213
-3.06284 21.0875 398.476 -0.376156 -0.907553 0.186694
-3.06524 21.1023 398.296 -0.36441 -0.930988 0.0216144
-3.0636 21.1181 398.117 -0.366503 -0.930382 0.00811026
-3.0621 21.1339 397.938 -0.403079 -0.914271 0.0404421
-3.05687 21.1511 397.756 -0.441446 -0.879057 0.179954
-3.24861 21.1252 397.573 -0.423939 -0.901837 0.0834595
-3.24734 21.1411 397.392 -0.395621 -0.916872 -0.0531954
-3.29465 21.1465 397.211 -0.372203 -0.928091 -0.0105595
-3.29292 21.1624 397.031 -0.356006 -0.933331 -0.0463972
-3.27775 21.1809 396.852 -0.376138 -0.926481 0.0123773
-3.25445 21.2013 396.674 -0.441768 -0.896934 -0.0187386
-3.25314 21.217 396.494 -0.486186 -0.870825 0.0727134
-3.41545 21.1982 396.309 -0.438682 -0.890371 0.121643
-3.53153 21.1891 396.126 -0.367689 -0.928637 0.0493892
-3.56713 21.197 395.945 -0.359502 -0.932766 0.0265741
-3.56492 21.2129 395.766 -0.43063 -0.889329 -0.15379
-3.43699 21.2553 395.591 -0.482999 -0.859331 -0.168114
-3.4352 21.2711 395.412 -0.461889 -0.886607 -0.024212
-3.46551 21.2802 395.231 -0.422534 -0.904605 -0.0561655
-3.46381 21.296 395.052 -0.419674 -0.904686 -0.0736064
-3.49116 21.3056 394.872 -0.425288 -0.901927 -0.0752169
-3.51325 21.3164 394.692 -0.405623 -0.912849 -0.0466511
-3.53268 21.3278 394.512 -0.38092 -0.923799 0.0386708
-3.58832 21.3315 394.331 -0.377077 -0.925908 0.0225487
-3.60061 21.3443 394.152 -0.396605 -0.916476 -0.0526866
-3.59849 21.3602 393.972 -0.411727 -0.897488 -0.158102
-3.50923 21.3945 393.796 -0.411617 -0.897643 -0.157508
-3.50728 21.4104 393.616 -0.38948 -0.91919 -0.0582727
-3.50537 21.4263 393.437 -0.380138 -0.919004 -0.104536
-3.4594 21.4515 393.259 -0.412048 -0.859974 -0.301101
-3.42923 21.4733 393.08 -0.347364 -0.829189 -0.437931
-3.22373 21.5323 392.906 -0.270369 -0.885204 -0.378569
-3.20746 21.5512 392.727 -0.247062 -0.92388 -0.292242
-3.17007 21.5746 392.549 -0.233883 -0.956441 -0.174698
-3.16749 21.5907 392.369 -0.264642 -0.958054 -0.109988
-3.14873 21.6101 392.191 -0.319079 -0.920121 -0.227081
-2.98373 21.6606 392.015 -0.336544 -0.910081 -0.241851
-2.92878 21.6879 391.836 -0.360508 -0.910143 -0.204143
-2.84546 21.7208 391.659 -0.381815 -0.875876 -0.295055
-2.78869 21.7486 391.48 -0.356064 -0.90898 -0.216733
-2.78606 21.7646 391.301 -0.37639 -0.913267 -0.155802
-2.78316 21.7807 391.121 -0.396675 -0.846558 -0.354948
-2.62947 21.829 390.944 -0.343661 -0.880663 -0.326084
-2.59834 21.8509 390.766 -0.339346 -0.850847 -0.401129
-2.40081 21.9085 390.589 -0.342525 -0.777322 -0.527682
-2.31869 21.9416 390.411 -0.350997 -0.825668 -0.441671
-2.26098 21.9692 390.233 -0.306129 -0.853603 -0.421482
-2.09842 22.0194 390.055 -0.269595 -0.925946 -0.264466
-2.09033 22.0367 389.876 -0.27109 -0.947536 -0.16937
-1.97223 22.0774 389.698 -0.29989 -0.846397 -0.440089
-1.82124 22.125 389.52 -0.296422 -0.83962 -0.455162
-1.70939 22.1644 389.342 -0.279949 -0.928304 -0.244704
-1.69782 22.1825 389.162 -0.258047 -0.834412 -0.487
-1.50509 22.2391 388.984 -0.183193 -0.875417 -0.447309
-1.37431 22.2825 388.806 -0.163401 -0.950109 -0.265694
-1.22287 22.3303 388.628 -0.218934 -0.939468 -0.263568
-1.14547 22.3667 388.448 -0.293622 -0.82195 -0.488042
-0.887634 22.433 388.271 -0.289898 -0.737896 -0.609482
-0.711697 22.486 388.093 -0.225713 -0.807963 -0.544287
-0.493586 22.5483 387.915 -0.18272 -0.89644 -0.403743
-2.0647 21.2811 400.874 -0.295014 -0.915707 0.272851
-2.29743 21.2475 400.683 -0.244648 -0.924926 0.290963
-2.32943 21.2563 400.502 -0.277016 -0.946948 0.162948
-2.37649 21.2617 400.32 -0.325224 -0.890657 0.317742
-2.67617 21.2141 400.126 -0.314626 -0.902181 0.295095
-2.67722 21.2295 399.944 -0.296587 -0.935528 0.191897
-2.82374 21.2136 399.763 -0.304202 -0.931076 0.201393
-2.91847 21.2091 399.577 -0.327004 -0.943878 0.0465006
-2.91974 21.2244 399.397 -0.284042 -0.941179 0.183037
-3.10811 21.2 399.209 -0.306141 -0.932861 0.189865
-3.10717 21.2158 399.029 -0.391657 -0.919751 -0.0257531
-3.16177 21.2193 398.85 -0.364099 -0.929772 0.054361
-3.16094 21.2351 398.668 -0.371411 -0.900296 0.226983
-3.26662 21.2282 398.485 -0.477872 -0.833544 0.277207
-3.36283 21.223 398.301 -0.564962 -0.823071 0.0580701
-3.39118 21.2326 398.121 -0.468074 -0.882019 -0.0543134
-3.38974 21.2484 397.941 -0.385976 -0.921374 -0.0457398
-3.44014 21.2532 397.759 -0.323786 -0.930654 0.170429
-3.55211 21.2449 397.577 -0.344338 -0.93191 0.113912
-3.50776 21.2697 397.397 -0.396905 -0.917822 -0.00837288
-3.59183 21.2672 397.217 -0.399751 -0.916222 0.0271535
-3.59045 21.283 397.037 -0.409239 -0.908488 -0.0846947
-3.6008 21.2962 396.857 -0.376292 -0.92076 -0.102977
-3.59902 21.312 396.678 -0.339933 -0.934971 -0.10136
-3.59776 21.3277 396.499 -0.296562 -0.951044 0.0869857
-3.68288 21.3251 396.316 -0.319599 -0.925482 0.203321
-3.71884 21.3329 396.136 -0.433282 -0.8974 0.0833072
-3.7169 21.3488 395.957 -0.533911 -0.839331 -0.102289
-3.65522 21.3772 395.78 -0.529064 -0.807397 -0.261154
-3.65298 21.3931 395.6 -0.426234 -0.896003 -0.124513
-3.7301 21.3922 395.418 -0.331164 -0.943333 0.0212988
-3.76313 21.4006 395.238 -0.310033 -0.948868 -0.0594028
-3.73267 21.4225 395.06 -0.326703 -0.941191 -0.0861626
-3.73055 21.4384 394.881 -0.370368 -0.927864 -0.0435369
-3.72912 21.4541 394.702 -0.403967 -0.914769 -0.00294275
-3.78006 21.4588 394.521 -0.404142 -0.913183 0.0525984
-3.81205 21.4675 394.341 -0.442723 -0.896657 -0.00197945
-3.79746 21.486 394.162 -0.488461 -0.868835 -0.0808154
-3.79555 21.5018 393.983 -0.503876 -0.847963 -0.164521
-3.79358 21.5177 393.804 -0.459113 -0.881195 -0.112743
-3.8462 21.522 393.623 -0.405062 -0.913435 -0.039501
-3.84438 21.5378 393.444 -0.379137 -0.90709 -0.182875
-3.76385 21.5704 393.267 -0.348882 -0.915459 -0.20054
-3.76149 21.5863 393.088 -0.327499 -0.909474 -0.256127
-3.75785 21.6025 392.909 -0.29527 -0.898932 -0.323631
-3.6259 21.646 392.733 -0.280938 -0.923462 -0.261328
-3.54163 21.6794 392.556 -0.295064 -0.919924 -0.258218
-3.40729 21.7234 392.38 -0.327728 -0.912916 -0.243267
-3.33913 21.7533 392.202 -0.374313 -0.884476 -0.278553
-3.33575 21.7695 392.022 -0.384758 -0.874019 -0.296734
-3.28368 21.796 391.845 -0.353477 -0.900513 -0.253238
-3.24537 21.8198 391.666 -0.307357 -0.925896 -0.219653
-3.22659 21.8392 391.487 -0.317685 -0.917276 -0.240169
-3.08141 21.8857 391.31 -0.371367 -0.902107 -0.219751
-3.05264 21.9072 391.132 -0.393804 -0.885536 -0.246465
-3.02981 21.9278 390.951 -0.377518 -0.85896 -0.345932
-2.89364 21.972 390.777 -0.381849 -0.79685 -0.468211
-2.74703 22.0189 390.599 -0.337118 -0.789376 -0.513065
-2.55033 22.0763 390.423 -0.282907 -0.903529 -0.321868
-2.5226 22.0976 390.244 -0.280926 -0.908796 -0.308497
-2.42617 22.1338 390.065 -0.308677 -0.911205 -0.272807
-2.41765 22.1514 389.884 -0.342891 -0.893341 -0.290462
-2.26776 22.1984 389.71 -0.372461 -0.794835 -0.479072
-2.14982 22.2395 389.53 -0.373295 -0.823675 -0.426862
-2.06916 22.272 389.353 -0.320623 -0.912681 -0.253406
-2.03153 22.2958 389.172 -0.306129 -0.897718 -0.316841
-1.93018 22.3329 388.994 -0.275629 -0.856465 -0.436459
-1.79292 22.3778 388.816 -0.237268 -0.864511 -0.443086
-1.56871 22.4282 388.641 -0.219799 -0.864718 -0.451609
-1.37991 22.4971 388.461 -0.248011 -0.834168 -0.492599
-1.23907 22.5428 388.283 -0.288511 -0.841582 -0.456619
-1.22236 22.562 388.103 -0.263244 -0.856803 -0.443386
-1.04276 22.6159 387.924 -0.2268 -0.841012 -0.491183
0.760857 23.1266 386.495 -0.0901487 -0.8586 -0.504658
1.20162 23.2366 386.317 -0.108014 -0.826176 -0.552961
1.37364 23.2891 386.137 -0.114107 -0.770155 -0.627568
1.79939 23.3959 385.958 -0.0780526 -0.789609 -0.608626
-2.38751 21.3972 400.876 -0.329934 -0.851599 0.407336
-2.64676 21.3578 400.684 -0.300262 -0.91155 0.280925
-2.65859 21.3709 400.504 -0.252545 -0.966985 0.0340869
-2.75203 21.3665 400.32 -0.23061 -0.934902 0.269771
-2.91744 21.347 400.133 -0.286335 -0.902062 0.322949
-3.07597 21.3289 399.946 -0.357991 -0.910969 0.204884
-3.14476 21.3298 399.763 -0.366449 -0.908412 0.201251
-3.19763 21.334 399.582 -0.411624 -0.897148 0.160284
-3.33665 21.32 399.396 -0.405447 -0.893975 0.190845
-3.33641 21.3355 399.216 -0.421815 -0.90311 0.0804051
-3.33537 21.351 399.038 -0.409523 -0.911858 0.0283778
-3.40961 21.3508 398.854 -0.383727 -0.923164 0.0228491
-3.4084 21.3665 398.675 -0.395446 -0.917398 0.0447555
-3.45599 21.3717 398.494 -0.409248 -0.899146 0.155092
-3.4871 21.3805 398.313 -0.476574 -0.85608 0.20001
-3.63355 21.365 398.128 -0.471375 -0.875629 0.10526
-3.65882 21.375 397.948 -0.430333 -0.899185 0.0792504
-3.76673 21.3675 397.764 -0.397565 -0.902032 0.168167
-3.79897 21.3762 397.584 -0.414451 -0.909237 0.038969
-3.83792 21.3833 397.403 -0.3832 -0.923513 -0.0167474
-3.83664 21.399 397.224 -0.356201 -0.934403 0.00348067
-3.86354 21.4086 397.044 -0.411985 -0.910934 -0.0216102
-3.89479 21.4174 396.863 -0.438517 -0.898444 -0.0224115
-3.91738 21.428 396.683 -0.421618 -0.906773 0.000453194
-3.9895 21.4281 396.502 -0.381903 -0.923096 0.0452078
-3.98869 21.4437 396.322 -0.363473 -0.931082 0.0312128
-4.01079 21.4544 396.143 -0.408182 -0.909802 -0.0751527
-3.95828 21.4809 395.965 -0.424672 -0.898346 -0.112378
-4.03371 21.4804 395.784 -0.375424 -0.924618 -0.0643277
-4.04126 21.4942 395.604 -0.325972 -0.944236 0.0464826
-4.13348 21.49 395.422 -0.324825 -0.943516 0.0653215
-4.13207 21.5058 395.243 -0.368794 -0.924799 -0.0934761
-4.11339 21.5251 395.065 -0.366881 -0.913894 -0.173768
-4.04425 21.5552 394.888 -0.357491 -0.927822 -0.106524
-4.08273 21.5624 394.708 -0.326546 -0.945012 -0.0179086
-4.08097 21.5782 394.528 -0.341776 -0.939551 -0.0208092
-4.07935 21.594 394.349 -0.389956 -0.917272 -0.0809078
-4.06131 21.6133 394.171 -0.382112 -0.91746 -0.110714
-4.05673 21.6297 393.992 -0.377038 -0.922251 -0.0854168
-4.05775 21.6449 393.813 -0.362975 -0.931524 -0.0226294
-4.07973 21.6557 393.633 -0.370802 -0.928712 -0.000398183
-4.10751 21.6652 393.453 -0.393705 -0.910633 -0.125477
-4.10512 21.6812 393.274 -0.388265 -0.906089 -0.168088
-4.08029 21.7019 393.096 -0.416392 -0.883602 -0.214161
-3.94901 21.7453 392.92 -0.451338 -0.827088 -0.334992
-3.91855 21.7673 392.742 -0.4061 -0.850727 -0.333687
-3.85181 21.7968 392.565 -0.351951 -0.871098 -0.342517
-3.78572 21.8265 392.386 -0.351799 -0.87129 -0.342187
-3.70322 21.8594 392.21 -0.34145 -0.893977 -0.290202
-3.5731 21.9027 392.032 -0.362232 -0.904496 -0.225112
-3.57034 21.9187 391.854 -0.405208 -0.900442 -0.15815
-3.56774 21.9347 391.675 -0.377652 -0.888625 -0.260241
-3.39732 21.9865 391.499 -0.343004 -0.873416 -0.345678
-3.37013 22.0079 391.32 -0.295588 -0.923631 -0.243996
-3.33437 22.0309 391.142 -0.336482 -0.915182 -0.221858
-3.23014 22.0687 390.964 -0.423565 -0.81059 -0.404397
-3.09664 22.1127 390.788 -0.379173 -0.833375 -0.402137
-3.09335 22.1289 390.608 -0.309989 -0.883482 -0.351236
-3.04901 22.1537 390.431 -0.286267 -0.904249 -0.316835
-2.9643 22.1875 390.251 -0.291923 -0.885405 -0.361717
-2.75068 22.2487 390.075 -0.303347 -0.891537 -0.336366
-2.6945 22.276 389.898 -0.313011 -0.874128 -0.371382
-2.48973 22.3354 389.721 -0.261892 -0.876662 -0.403581
-2.44536 22.3606 389.541 -0.205354 -0.948601 -0.240804
-2.4107 22.3833 389.363 -0.241038 -0.94697 -0.212482
-2.35329 22.4113 389.183 -0.304688 -0.911529 -0.276187
-2.26749 22.4452 389.005 -0.288478 -0.886324 -0.36223
-2.16637 22.4825 388.826 -0.274489 -0.858551 -0.433067
-2.03904 22.5188 388.65 -0.286129 -0.77724 -0.560382
-1.80944 22.5947 388.468 -0.262216 -0.788705 -0.556045
-1.59454 22.6511 388.296 -0.226483 -0.90171 -0.368272
-1.46777 22.6941 388.115 -0.298397 -0.869337 -0.393971
-1.31997 22.7414 387.937 -0.338573 -0.73192 -0.591322
0.246854 23.1951 386.509 -0.220761 -0.668127 -0.710543
0.569075 23.2869 386.328 -0.166816 -0.741651 -0.649713
0.919393 23.3777 386.15 -0.120595 -0.835196 -0.536568
1.08158 23.4275 385.969 -0.110394 -0.777975 -0.618521
-2.57875 21.5255 401.064 -0.302622 -0.876292 0.374876
-2.69519 21.5163 400.879 -0.25393 -0.872125 0.418231
-3.01821 21.4589 400.682 -0.304233 -0.859624 0.410474
-3.15734 21.4493 400.498 -0.350565 -0.930619 0.10513
-3.16075 21.4641 400.316 -0.332468 -0.922559 0.195831
-3.27684 21.4523 400.135 -0.409272 -0.867467 0.282837
-3.27682 21.4653 399.952 -0.464618 -0.853108 0.237354
-3.40888 21.4575 399.768 -0.475663 -0.863191 0.16925
-3.42594 21.4694 399.589 -0.409638 -0.89645 0.169038
-3.51153 21.4666 399.405 -0.37599 -0.912176 0.162993
-3.59609 21.4641 399.221 -0.384408 -0.918389 0.0937618
-3.7277 21.4515 399.039 -0.358337 -0.931389 0.0641077
-3.70952 21.4708 398.858 -0.379539 -0.925175 0.00105717
-3.75524 21.4765 398.678 -0.374637 -0.927163 0.00410702
-3.76828 21.4891 398.498 -0.363967 -0.931142 0.0224336
-3.80727 21.4962 398.317 -0.361628 -0.915985 0.173772
-3.92077 21.4875 398.133 -0.372572 -0.916759 0.144023
-3.92016 21.503 397.954 -0.403538 -0.907044 0.120121
-4.02776 21.4956 397.77 -0.462998 -0.868404 0.177504
-4.06215 21.5037 397.591 -0.54438 -0.826941 0.140776
-4.1691 21.4964 397.407 -0.482973 -0.873737 0.0576264
-4.16749 21.5122 397.228 -0.410105 -0.90685 -0.0971403
-4.12076 21.5374 397.051 -0.406469 -0.911009 -0.0696086
-4.11951 21.553 396.872 -0.36483 -0.931066 -0.00385417
-4.16391 21.559 396.691 -0.338423 -0.939536 0.0523656
-4.2029 21.5661 396.51 -0.385615 -0.918907 0.0831349
-4.29353 21.5622 396.329 -0.434379 -0.899731 -0.0424126
-4.22152 21.5929 396.152 -0.434192 -0.894492 -0.106588
-4.2901 21.5937 395.971 -0.410705 -0.911602 -0.0174012
-4.27093 21.6132 395.792 -0.411935 -0.910217 0.0426028
-4.35053 21.6117 395.611 -0.441615 -0.893837 0.0776586
-4.34718 21.6278 395.432 -0.495631 -0.868462 0.0111404
-4.35023 21.6425 395.253 -0.548039 -0.831512 -0.0907862
-4.34835 21.6584 395.074 -0.535352 -0.828829 -0.162603
-4.34686 21.6741 394.895 -0.447934 -0.893435 -0.0335947
-4.42762 21.6723 394.714 -0.384302 -0.922202 -0.0430775
-4.35485 21.7032 394.537 -0.375332 -0.920209 -0.111091
-4.39132 21.7109 394.357 -0.354765 -0.932429 -0.068684
-4.38959 21.7267 394.178 -0.336837 -0.936205 -0.100306
-4.38783 21.7424 393.999 -0.327407 -0.942873 -0.0616063
-4.41973 21.7511 393.819 -0.363853 -0.930664 -0.0384146
-4.41809 21.7669 393.64 -0.416574 -0.90827 -0.0388662
-4.41619 21.7827 393.461 -0.430554 -0.894734 -0.118637
-4.34508 21.8133 393.284 -0.428291 -0.87392 -0.22985
-4.26508 21.8458 393.107 -0.435054 -0.849267 -0.299123
-4.24185 21.8661 392.929 -0.402004 -0.882621 -0.243664
-4.22557 21.8851 392.75 -0.406665 -0.883577 -0.232197
-4.15313 21.916 392.573 -0.428459 -0.823805 -0.371172
-4.00759 21.9625 392.398 -0.39272 -0.859325 -0.327615
-3.99065 21.9815 392.219 -0.365773 -0.870669 -0.328856
-3.89483 22.0175 392.042 -0.338888 -0.895631 -0.288096
-3.84193 22.0441 391.864 -0.340655 -0.933165 -0.114703
-3.85513 22.057 391.684 -0.414785 -0.884438 -0.213828
-3.85301 22.0728 391.505 -0.362963 -0.901231 -0.236728
-3.84958 22.089 391.327 -0.294257 -0.900936 -0.318948
-3.56533 22.1653 391.153 -0.303245 -0.87226 -0.383673
-3.54463 22.1851 390.974 -0.296594 -0.911922 -0.283602
-3.50735 22.2086 390.796 -0.369301 -0.895207 -0.24944
-3.46279 22.2337 390.617 -0.458808 -0.818674 -0.345352
-3.24731 22.2953 390.442 -0.452233 -0.7951 -0.404106
-3.20782 22.3179 390.263 -0.407147 -0.802412 -0.43631
-3.09481 22.359 390.085 -0.393263 -0.826634 -0.402516
-3.06733 22.3804 389.907 -0.42123 -0.855906 -0.299983
-3.08958 22.3911 389.726 -0.320164 -0.910041 -0.263289
-3.06135 22.4126 389.548 -0.244222 -0.908878 -0.338079
-2.74901 22.4951 389.373 -0.258973 -0.8984 -0.354698
-2.71907 22.5171 389.194 -0.291983 -0.92239 -0.252871
-2.64088 22.5494 389.015 -0.317244 -0.876855 -0.361221
-2.50376 22.5943 388.837 -0.347631 -0.765977 -0.540769
-2.20223 22.6745 388.662 -0.356693 -0.74644 -0.56178
-2.18983 22.6997 388.481 -0.37594 -0.76556 -0.522099
-2.06338 22.7354 388.304 -0.3431 -0.721981 -0.600855
-1.75959 22.8175 388.127 -0.28075 -0.816488 -0.504506
-1.65738 22.8537 387.949 -0.254731 -0.886282 -0.386803
-1.50618 22.9017 387.77 -0.257636 -0.862713 -0.435144
-1.48113 22.9228 387.59 -0.221416 -0.882482 -0.41497
-1.16378 23.0065 387.413 -0.218449 -0.840393 -0.496004
-0.970464 23.0776 387.231 -0.226305 -0.750665 -0.620715
0.103084 23.3797 386.339 -0.184868 -0.816491 -0.546961
0.302156 23.431 386.161 -0.192469 -0.768264 -0.610513
0.692347 23.5229 385.984 -0.171135 -0.692473 -0.700852
1.04139 23.6219 385.803 -0.146606 -0.745806 -0.649831
-2.98471 21.6235 401.062 -0.248909 -0.877981 0.408893
-3.125 21.6137 400.877 -0.288276 -0.887851 0.358634
-3.20717 21.6071 400.692 -0.331468 -0.850433 0.408525
-3.35039 21.5947 400.507 -0.479347 -0.859137 0.179192
-3.34969 21.6101 400.326 -0.417932 -0.906202 0.0642739
-3.39 21.6149 400.147 -0.407628 -0.890017 0.20423
-3.56694 21.5922 399.958 -0.424632 -0.879322 0.215593
-3.59511 21.5901 399.774 -0.408682 -0.874803 0.260189
-3.81689 21.566 399.587 -0.407294 -0.880856 0.241254
-3.88358 21.5714 399.405 -0.370648 -0.91591 0.154042
-3.94972 21.5723 399.225 -0.354958 -0.925013 0.135483
-3.94879 21.5881 399.045 -0.408636 -0.911907 0.0379774
-3.97522 21.5978 398.865 -0.426683 -0.904199 0.0191361
-4.03361 21.6008 398.683 -0.359675 -0.932829 0.0215366
-4.04719 21.6133 398.503 -0.339262 -0.940661 0.00764186
-4.09906 21.6176 398.322 -0.34464 -0.926593 0.150493
-4.20256 21.6109 398.139 -0.400926 -0.910738 0.0990724
-4.20131 21.6266 397.96 -0.4357 -0.899983 0.0139947
-4.19995 21.6423 397.782 -0.454188 -0.889453 0.0508502
-4.20133 21.6573 397.602 -0.482429 -0.84499 0.230767
-4.39139 21.6323 397.415 -0.471951 -0.860452 0.192055
-4.39056 21.6479 397.236 -0.448709 -0.889275 -0.0885992
-4.42615 21.6557 397.057 -0.397465 -0.917565 0.00978888
-4.54556 21.6456 396.873 -0.353408 -0.934454 0.0435838
-4.54425 21.6613 396.694 -0.357408 -0.933226 -0.0367166
-4.51794 21.6823 396.516 -0.394814 -0.918747 0.00513457
-4.51645 21.698 396.337 -0.461128 -0.886397 -0.0407711
-4.53826 21.7087 396.158 -0.468325 -0.881496 -0.0603065
-4.53686 21.7244 395.979 -0.463536 -0.885928 -0.0162915
-4.55452 21.7359 395.8 -0.472102 -0.881529 -0.00511045
-4.55309 21.7517 395.62 -0.487117 -0.873334 -0.00189163
-4.55622 21.7664 395.441 -0.480949 -0.873609 -0.0741338
-4.55447 21.7822 395.263 -0.426972 -0.90077 -0.0794276
-4.55292 21.7979 395.084 -0.419876 -0.907469 -0.0142649
-4.63239 21.7964 394.902 -0.41209 -0.907688 0.0792696
-4.66046 21.8058 394.723 -0.451608 -0.89202 -0.0187298
-4.68913 21.8151 394.543 -0.460133 -0.885478 -0.0648488
-4.70936 21.8262 394.364 -0.449406 -0.893052 -0.0222009
-4.71556 21.8402 394.185 -0.469283 -0.879827 -0.0753563
-4.71332 21.8561 394.006 -0.46816 -0.872658 -0.138901
-4.61617 21.8923 393.83 -0.512568 -0.847115 -0.140252
-4.61405 21.9081 393.651 -0.558202 -0.827845 -0.0555266
-4.63507 21.9191 393.472 -0.55727 -0.820662 -0.12635
-4.63301 21.9349 393.293 -0.485831 -0.833111 -0.264375
-4.58072 21.9615 393.115 -0.398537 -0.889466 -0.223649
-4.55924 21.9816 392.937 -0.35608 -0.903091 -0.240072
-4.41097 22.0287 392.762 -0.383817 -0.876774 -0.289743
-4.38288 22.0501 392.584 -0.412399 -0.86244 -0.293469
-4.36926 22.0685 392.405 -0.379838 -0.883365 -0.274572
-4.29838 22.0992 392.227 -0.376198 -0.885513 -0.272657
-4.23627 22.1277 392.051 -0.361951 -0.888337 -0.282575
-4.18281 22.1548 391.871 -0.319807 -0.914534 -0.24769
-4.04405 22.1997 391.697 -0.343602 -0.932098 -0.114595
-4.12706 22.1977 391.515 -0.449473 -0.887626 -0.100475
-4.02316 22.2353 391.339 -0.49031 -0.757526 -0.430987
-4.01927 22.2516 391.16 -0.387532 -0.834485 -0.391732
-3.92851 22.2865 390.982 -0.299469 -0.861688 -0.409649
-3.58954 22.3753 390.81 -0.379547 -0.827541 -0.413666
-3.57518 22.3932 390.63 -0.491747 -0.793078 -0.35946
-3.53637 22.4169 390.453 -0.402801 -0.857064 -0.321234
-3.52921 22.4341 390.273 -0.350154 -0.856308 -0.379643
-3.28278 22.5025 390.097 -0.355874 -0.839656 -0.410283
-3.22581 22.53 389.92 -0.357125 -0.929864 -0.088407
-3.27727 22.5347 389.738 -0.423313 -0.900901 -0.095827
-3.21124 22.5644 389.562 -0.462328 -0.743106 -0.483783
-3.1339 22.5919 389.383 -0.354246 -0.812943 -0.462204
-3.02995 22.6344 389.205 -0.347168 -0.873815 -0.340473
-2.89994 22.6778 389.027 -0.410712 -0.751732 -0.51596
-2.6858 22.7393 388.851 -0.388748 -0.707049 -0.590726
-2.64498 22.7637 388.671 -0.287335 -0.797154 -0.531021
-2.30061 22.8532 388.496 -0.250675 -0.868501 -0.42763
-2.22406 22.8852 388.317 -0.333156 -0.830284 -0.446805
-2.20766 22.9044 388.138 -0.366956 -0.798849 -0.476638
-2.08935 22.9454 387.959 -0.329396 -0.832729 -0.445039
-1.93512 22.9942 387.781 -0.273789 -0.892235 -0.359106
-1.82922 23.0303 387.602 -0.264338 -0.850136 -0.455406
-1.66679 23.0831 387.424 -0.262119 -0.769141 -0.582851
-1.51348 23.1318 387.245 -0.216416 -0.736321 -0.641089
-0.250751 23.4817 386.353 -0.214673 -0.763738 -0.608785
0.0645448 23.5652 386.175 -0.179384 -0.795133 -0.579297
0.222549 23.6121 385.995 -0.125006 -0.797861 -0.589739
0.544105 23.7076 385.814 -0.135145 -0.807183 -0.574623
0.688569 23.7469 385.635 -0.159707 -0.751368 -0.640266
1.24504 23.8824 385.457 -0.124008 -0.680932 -0.721771
-3.19906 21.7618 401.069 -0.329076 -0.84823 0.414988
-3.43924 21.7262 400.878 -0.379265 -0.86814 0.320142
-3.48948 21.7309 400.696 -0.406581 -0.872343 0.271496
-3.63889 21.7145 400.51 -0.432438 -0.858048 0.27704
-3.76751 21.7026 400.325 -0.370701 -0.927049 0.0562214
-3.76674 21.7183 400.143 -0.300261 -0.944838 0.130862
-3.84973 21.7154 399.966 -0.363843 -0.909091 0.202907
-3.9154 21.7212 399.782 -0.43139 -0.859427 0.274387
-4.00361 21.7152 399.598 -0.40555 -0.856963 0.318032
-4.11986 21.7044 399.413 -0.407007 -0.89057 0.203052
-4.21258 21.6999 399.23 -0.418171 -0.906162 0.0632678
-4.22049 21.7137 399.051 -0.407954 -0.912981 0.00634926
-4.28826 21.7146 398.869 -0.398517 -0.906418 0.139966
-4.40204 21.7057 398.685 -0.404682 -0.911357 0.0752335
-4.40111 21.7214 398.505 -0.378212 -0.925677 -0.00885092
-4.42411 21.7316 398.327 -0.37071 -0.926772 0.0605605
-4.42279 21.7473 398.147 -0.463345 -0.884287 0.0578602
-4.46967 21.7527 397.966 -0.548805 -0.835918 -0.00735221
-4.48889 21.7639 397.786 -0.421821 -0.906166 -0.0305029
-4.52474 21.7717 397.606 -0.317596 -0.931384 0.177921
-4.66027 21.7582 397.422 -0.364218 -0.908899 0.203097
-4.7016 21.7647 397.242 -0.418222 -0.90834 0.00316429
-4.72051 21.7761 397.062 -0.412729 -0.905345 0.100024
-4.75769 21.7835 396.882 -0.463755 -0.883693 0.0633865
-4.75602 21.7993 396.703 -0.497175 -0.8609 -0.108025
-4.74964 21.8158 396.525 -0.462293 -0.880076 -0.108406
-4.74788 21.8317 396.346 -0.4285 -0.901821 -0.0557439
-4.7544 21.8456 396.167 -0.411994 -0.909424 -0.0566494
-4.75287 21.8614 395.988 -0.38822 -0.920719 -0.0395264
-4.78643 21.8695 395.808 -0.373764 -0.926624 -0.0408356
-4.78506 21.8852 395.629 -0.375146 -0.926938 -0.00715
-4.87553 21.8813 395.447 -0.380718 -0.92466 0.00755356
-4.89158 21.8932 395.268 -0.38697 -0.919501 -0.0690858
-4.89116 21.9087 395.089 -0.357989 -0.933603 -0.015143
-4.89729 21.9228 394.911 -0.362266 -0.932043 0.00765933
-4.89566 21.9385 394.732 -0.404061 -0.913945 -0.0379343
-4.88912 21.9553 394.553 -0.444355 -0.894591 -0.047495
-4.87992 21.9727 394.375 -0.492045 -0.868943 -0.0531897
-4.88548 21.9869 394.196 -0.508729 -0.857755 -0.0738337
-4.87602 22.0043 394.018 -0.516754 -0.827623 -0.2191
-4.83389 22.0288 393.84 -0.475229 -0.855183 -0.206927
-4.83177 22.0446 393.661 -0.442817 -0.894344 -0.0637357
-4.82996 22.0604 393.483 -0.495815 -0.868092 -0.0241384
-4.86601 22.0681 393.303 -0.542001 -0.835279 -0.0924325
-4.8642 22.0839 393.124 -0.50041 -0.852976 -0.148396
-4.86187 22.0998 392.945 -0.43388 -0.841723 -0.321327
-4.74793 22.1397 392.77 -0.347523 -0.878906 -0.326729
-4.7081 22.1636 392.592 -0.30294 -0.930022 -0.208055
-4.60835 22.2004 392.415 -0.335971 -0.906469 -0.255808
-4.5549 22.2274 392.238 -0.366761 -0.897412 -0.245231
-4.52894 22.2484 392.06 -0.399295 -0.895359 -0.19722
-4.52631 22.2644 391.881 -0.418769 -0.85175 -0.314888
-4.43723 22.2989 391.704 -0.377603 -0.874137 -0.30545
-4.29393 22.3451 391.528 -0.464619 -0.856049 -0.226515
-4.29076 22.3612 391.349 -0.582461 -0.775749 -0.242802
-4.23511 22.3885 391.172 -0.556558 -0.793953 -0.244708
-4.21276 22.409 390.993 -0.437247 -0.640483 -0.631344
-3.96052 22.4786 390.819 -0.316374 -0.793481 -0.519899
-3.91489 22.5038 390.64 -0.25129 -0.954616 -0.15988
-3.89171 22.5243 390.461 -0.321829 -0.921498 -0.21741
-3.77247 22.5656 390.284 -0.438185 -0.785867 -0.436357
-3.71533 22.5931 390.107 -0.389684 -0.83488 -0.388743
-3.6813 22.6163 389.926 -0.296892 -0.934687 -0.195486
-3.55617 22.6583 389.752 -0.335709 -0.916717 -0.216632
-3.51255 22.6834 389.572 -0.42973 -0.86197 -0.268961
-3.46731 22.7087 389.393 -0.412068 -0.793726 -0.447436
-3.23602 22.778 389.216 -0.375123 -0.779379 -0.501847
-3.13884 22.8103 389.04 -0.390621 -0.772421 -0.500781
-3.0216 22.8511 388.861 -0.353202 -0.86188 -0.363883
-3.01064 22.8694 388.68 -0.358539 -0.803404 -0.475386
-2.86653 22.9154 388.507 -0.309082 -0.732827 -0.606163
-2.61214 22.986 388.328 -0.231257 -0.869972 -0.43551
-2.34565 23.0589 388.152 -0.298441 -0.880544 -0.368206
-2.31926 23.0803 387.972 -0.392067 -0.856207 -0.336443
-2.29061 23.1005 387.793 -0.407525 -0.810928 -0.419903
-2.14515 23.149 387.614 -0.399565 -0.709744 -0.580182
-1.89327 23.2211 387.436 -0.350213 -0.742322 -0.571235
-1.75462 23.2644 387.258 -0.325006 -0.706051 -0.629176
-0.636359 23.5959 386.185 -0.176831 -0.88201 -0.436794
-0.447905 23.6507 386.007 -0.161212 -0.74471 -0.647625
0.147991 23.8031 385.828 -0.140655 -0.754206 -0.641396
0.412032 23.8731 385.649 -0.174851 -0.780665 -0.599991
0.59386 23.9178 385.472 -0.153762 -0.679159 -0.717705
1.06789 24.0381 385.292 -0.0972695 -0.732328 -0.673969
1.58363 24.1744 385.11 -0.105922 -0.734953 -0.669795
1.8839 24.2538 384.93 -0.126156 -0.720637 -0.681738
-3.6767 21.8593 400.884 -0.386771 -0.87625 0.287391
-3.72338 21.8647 400.702 -0.442825 -0.863214 0.242419
-3.84598 21.854 400.517 -0.391956 -0.833448 0.389532
-4.04496 21.827 400.329 -0.45894 -0.855811 0.238664
-4.07425 21.8361 400.149 -0.45036 -0.892447 0.0267298
-4.07773 21.8506 399.969 -0.363905 -0.9292 0.0645024
-4.1145 21.8582 399.788 -0.326953 -0.913874 0.240701
-4.37503 21.818 399.598 -0.314355 -0.907696 0.277971
-4.41831 21.8241 399.417 -0.363752 -0.913929 0.18005
-4.49948 21.8221 399.235 -0.432264 -0.897266 0.0897869
-4.51044 21.8351 399.055 -0.446535 -0.894553 0.019529
-4.53218 21.8458 398.875 -0.407803 -0.902347 0.13952
-4.59008 21.8488 398.694 -0.433424 -0.890253 0.139975
-4.67045 21.847 398.512 -0.479535 -0.877321 0.0187956
-4.66904 21.8628 398.332 -0.467373 -0.878626 -0.0978695
-4.62409 21.8876 398.156 -0.426842 -0.900993 -0.0775676
-4.62317 21.9031 397.977 -0.410345 -0.895296 0.173383
-4.85936 21.868 397.789 -0.397001 -0.903905 0.159206
-4.85882 21.8836 397.609 -0.381343 -0.918246 0.10678
-4.91946 21.8859 397.43 -0.457443 -0.874144 0.163149
-4.94829 21.8944 397.249 -0.503026 -0.864044 0.0198125
-4.95763 21.9085 397.07 -0.475844 -0.879123 0.0267249
-5.00342 21.914 396.89 -0.538065 -0.842587 0.0230857
-5.01733 21.9264 396.71 -0.595363 -0.802592 -0.0372759
-5.04087 21.9367 396.531 -0.536113 -0.843265 -0.0385703
-5.05916 21.9481 396.351 -0.481127 -0.876446 -0.0189695
-5.09645 21.9555 396.171 -0.410556 -0.911759 -0.011812
-5.13289 21.9631 395.992 -0.397661 -0.917474 -0.0103231
-5.1469 21.9754 395.812 -0.414042 -0.909362 -0.0403664
-5.14499 21.9912 395.634 -0.391164 -0.920181 -0.0160478
-5.13454 22.0088 395.456 -0.429539 -0.903036 0.0046721
-5.13305 22.0245 395.277 -0.464703 -0.885465 -0.00144423
-5.20065 22.0254 395.096 -0.440622 -0.897588 -0.013699
-5.19913 22.0411 394.918 -0.416364 -0.906873 -0.0649859
-5.21142 22.0538 394.739 -0.458212 -0.882092 -0.109341
-5.17061 22.078 394.561 -0.497201 -0.857879 -0.129748
-5.16882 22.0937 394.383 -0.460773 -0.883652 -0.0827443
-5.16697 22.1095 394.204 -0.431361 -0.896681 -0.0994578
-5.14738 22.1291 394.026 -0.403583 -0.904171 -0.139983
-5.14482 22.1451 393.847 -0.402458 -0.905096 -0.137221
-5.1211 22.1655 393.669 -0.414237 -0.897429 -0.151757
-5.06164 22.1937 393.492 -0.415813 -0.903821 -0.101028
-5.05989 22.2095 393.314 -0.434101 -0.900202 -0.0345399
-5.07652 22.2214 393.135 -0.46376 -0.884218 -0.055547
-5.08659 22.2346 392.956 -0.491502 -0.856525 -0.157454
-5.10481 22.2461 392.777 -0.455806 -0.856669 -0.241575
-5.05196 22.2696 392.6 -0.444341 -0.836795 -0.319898
-4.96321 22.3073 392.423 -0.423737 -0.840089 -0.338669
-4.89577 22.3372 392.246 -0.405763 -0.859935 -0.309624
-4.76088 22.3816 392.07 -0.446876 -0.856688 -0.257659
-4.71792 22.4064 391.892 -0.49208 -0.833725 -0.25052
-4.66383 22.4333 391.715 -0.458129 -0.75351 -0.47153
-4.48902 22.4864 391.54 -0.406104 -0.830232 -0.381832
-4.43536 22.5134 391.362 -0.38842 -0.903316 -0.182069
-4.4254 22.5329 391.183 -0.441393 -0.878181 -0.18431
-4.39323 22.554 391.005 -0.462629 -0.805137 -0.37112
-4.36142 22.5757 390.827 -0.34709 -0.876034 -0.334801
-4.34851 22.5939 390.648 -0.309001 -0.89391 -0.32472
-4.08092 22.6671 390.474 -0.38497 -0.788081 -0.48034
-3.96658 22.7072 390.297 -0.422929 -0.843018 -0.332343
-3.95288 22.7256 390.118 -0.454562 -0.873944 -0.172031
-3.95039 22.7417 389.937 -0.485389 -0.809681 -0.329869
-3.8331 22.7822 389.764 -0.397816 -0.821824 -0.407857
-3.70709 22.8261 389.584 -0.394745 -0.877733 -0.27159
-3.68121 22.8462 389.406 -0.442128 -0.797094 -0.411295
-3.58744 22.882 389.228 -0.357932 -0.778706 -0.515269
-3.40572 22.9368 389.051 -0.354235 -0.853147 -0.382958
-3.38693 22.9562 388.872 -0.417492 -0.796945 -0.436553
-3.08961 23.0359 388.697 -0.425372 -0.774561 -0.468096
-3.06272 23.0573 388.518 -0.447941 -0.767839 -0.45801
-3.03386 23.0776 388.339 -0.352322 -0.683105 -0.639716
-2.75902 23.154 388.162 -0.28662 -0.814187 -0.504924
-2.66121 23.1907 387.984 -0.291433 -0.894648 -0.338632
-2.42693 23.2568 387.807 -0.356273 -0.823733 -0.44106
-2.34312 23.2921 387.627 -0.427162 -0.745387 -0.511792
-2.28777 23.3182 387.448 -0.350951 -0.75363 -0.555765
-2.05172 23.3847 387.271 -0.281918 -0.823494 -0.492321
-0.862027 23.7459 386.201 -0.273977 -0.802928 -0.529381
-0.693455 23.7898 386.019 -0.327137 -0.5416 -0.774371
-0.475395 23.8508 385.84 -0.2266 -0.571398 -0.788769
-0.0541266 23.9577 385.662 -0.170049 -0.793778 -0.583951
0.186727 24.0255 385.482 -0.20907 -0.743776 -0.634891
0.390458 24.0966 385.299 -0.172767 -0.589425 -0.789132
0.915789 24.2228 385.121 -0.107846 -0.698043 -0.707888
1.36892 24.3287 384.944 -0.106593 -0.797812 -0.593409
-3.92931 21.989 400.889 -0.492641 -0.832699 0.252819
-4.0026 21.9887 400.706 -0.421558 -0.862812 0.279006
-4.18713 21.9647 400.519 -0.369322 -0.87629 0.309383
-4.18953 21.9795 400.339 -0.42581 -0.865046 0.265294
-4.36621 21.9571 400.152 -0.400328 -0.900157 0.171625
-4.46291 21.9518 399.969 -0.331271 -0.937727 0.104532
-4.57783 21.9426 399.785 -0.309906 -0.918086 0.247137
-4.63709 21.9452 399.603 -0.407935 -0.876832 0.25447
-4.67813 21.9518 399.423 -0.560316 -0.818578 0.126395
-4.70556 21.9612 399.242 -0.484872 -0.870644 0.0829397
-4.75522 21.966 399.062 -0.403231 -0.912509 0.0687893
-4.84982 21.961 398.878 -0.399142 -0.912308 0.0915375
-4.88149 21.9697 398.699 -0.431553 -0.8991 0.0733593
-4.88496 21.9842 398.52 -0.413631 -0.910029 0.0275003
-4.92709 21.9905 398.338 -0.376071 -0.925998 -0.0331497
-4.98856 21.9926 398.159 -0.349732 -0.934302 -0.0690409
-4.98734 22.0083 397.979 -0.32043 -0.933728 0.159615
-5.08756 22.0022 397.796 -0.412221 -0.888509 0.201558
-5.08626 22.0178 397.618 -0.531188 -0.847117 -0.0152805
-5.08508 22.0334 397.44 -0.538091 -0.833237 0.127181
-5.19567 22.0251 397.256 -0.587521 -0.804597 0.0862709
-5.19465 22.0407 397.077 -0.519354 -0.851453 -0.0727961
-5.14164 22.0672 396.901 -0.471728 -0.878913 -0.070599
-5.14006 22.083 396.722 -0.493775 -0.868511 0.0432976
-5.22871 22.0793 396.541 -0.505662 -0.861175 0.0518052
-5.229 22.0947 396.361 -0.495583 -0.860596 0.11735
-5.37525 22.0785 396.179 -0.483233 -0.875126 0.0252833
-5.26253 22.1182 396.003 -0.527554 -0.849117 -0.0262086
-5.37201 22.11 395.822 -0.597362 -0.801315 0.0324515
-5.34472 22.1312 395.644 -0.635919 -0.768081 -0.0752288
-5.37619 22.1399 395.464 -0.630277 -0.775357 -0.0396433
-5.38092 22.1542 395.285 -0.567882 -0.820604 0.0641811
-5.43997 22.1569 395.105 -0.569778 -0.819771 0.0576976
-5.43806 22.1727 394.926 -0.616004 -0.774202 -0.145433
-5.35763 22.2053 394.75 -0.605601 -0.773407 -0.18732
-5.3556 22.2211 394.572 -0.573271 -0.817313 -0.0579628
-5.41209 22.2244 394.392 -0.527896 -0.849022 -0.0220696
-5.41057 22.2401 394.213 -0.527994 -0.848251 -0.0411379
-5.46565 22.2436 394.033 -0.5159 -0.844723 -0.142445
-5.3618 22.2813 393.858 -0.508137 -0.844855 -0.167383
-5.39462 22.2897 393.678 -0.496192 -0.853846 -0.157292
-5.35754 22.313 393.501 -0.455147 -0.880108 -0.135094
-5.39045 22.3213 393.321 -0.444873 -0.89148 -0.0857425
-5.33283 22.3491 393.144 -0.470621 -0.875903 -0.106346
-5.3305 22.365 392.966 -0.525258 -0.844628 -0.103478
-5.27362 22.3927 392.789 -0.556505 -0.791934 -0.25128
-5.18412 22.4274 392.612 -0.535055 -0.785315 -0.311441
-5.18099 22.4498 392.434 -0.470063 -0.82501 -0.313687
-5.07732 22.4812 392.257 -0.471429 -0.790176 -0.391634
-5.01704 22.5095 392.081 -0.475359 -0.812121 -0.338368
-4.96375 22.5365 391.903 -0.471681 -0.84578 -0.249343
-4.92281 22.5607 391.725 -0.515173 -0.771955 -0.3724
-4.8755 22.5864 391.547 -0.444739 -0.831964 -0.331728
-4.85655 22.6058 391.369 -0.398645 -0.87476 -0.275456
-4.70227 22.6547 391.193 -0.42442 -0.870583 -0.248903
-4.6997 22.6706 391.015 -0.412709 -0.900904 -0.134329
-4.69666 22.6867 390.836 -0.429195 -0.859932 -0.276239
-4.51041 22.7423 390.661 -0.419473 -0.719469 -0.55354
-4.37586 22.7869 390.484 -0.437697 -0.724615 -0.53231
-4.33565 22.811 390.306 -0.429043 -0.826604 -0.364209
-4.16232 22.864 390.13 -0.449529 -0.858967 -0.245154
-4.15981 22.88 389.951 -0.521657 -0.830536 -0.19515
-4.15711 22.8959 389.773 -0.439649 -0.80963 -0.388854
-4.04571 22.9429 389.594 -0.357622 -0.861681 -0.360017
-3.92899 22.9763 389.417 -0.337662 -0.903701 -0.263264
-3.9023 22.9977 389.239 -0.344261 -0.813948 -0.467945
-3.66389 23.0647 389.063 -0.369438 -0.778813 -0.506918
-3.52449 23.1103 388.886 -0.400133 -0.796547 -0.453218
-3.50361 23.1304 388.707 -0.31653 -0.84058 -0.439584
-3.32664 23.1842 388.53 -0.282876 -0.908725 -0.306919
-3.21835 23.2232 388.352 -0.381251 -0.783817 -0.490182
-3.08524 23.2679 388.172 -0.378693 -0.752192 -0.539258
-2.97284 23.3071 387.997 -0.350629 -0.786625 -0.508213
-2.81787 23.3566 387.818 -0.328956 -0.766909 -0.551034
-2.59821 23.4196 387.64 -0.313453 -0.882322 -0.351077
-2.57339 23.4406 387.461 -0.380195 -0.824379 -0.419346
-2.4436 23.4843 387.282 -0.322045 -0.691373 -0.646754
-2.16931 23.5593 387.105 -0.287972 -0.803546 -0.520947
-1.20005 23.8476 386.212 -0.250959 -0.67464 -0.694176
-0.88623 23.9313 386.034 -0.316999 -0.724049 -0.612588
-0.742266 23.9777 385.854 -0.36242 -0.564483 -0.741627
-0.501907 24.0461 385.675 -0.27196 -0.564979 -0.778997
-0.0801894 24.1469 385.498 -0.220383 -0.731099 -0.645698
0.137886 24.2162 385.317 -0.260209 -0.648041 -0.715775
0.369765 24.276 385.138 -0.219204 -0.520495 -0.825248
0.872989 24.4072 384.957 -0.149097 -0.697251 -0.70115
1.16022 24.4853 384.777 -0.117519 -0.761353 -0.637598
1.62944 24.603 384.597 -0.11075 -0.716115 -0.68914
2.0307 24.7074 384.416 -0.122226 -0.636486 -0.761542
2.50773 24.823 384.236 -0.132866 -0.848246 -0.512665
-4.11923 22.1319 400.897 -0.387547 -0.870381 0.303717
-4.31722 22.1049 400.709 -0.365019 -0.871924 0.326358
-4.39945 22.1026 400.526 -0.445605 -0.85567 0.263181
-4.51957 22.0904 400.341 -0.435237 -0.835954 0.33429
-4.70306 22.0662 400.153 -0.411786 -0.851991 0.323332
-4.73726 22.0765 399.973 -0.508527 -0.837301 0.20082
-4.78041 22.0822 399.794 -0.543418 -0.826839 0.145033
-4.77918 22.098 399.614 -0.582825 -0.808437 0.0821206
-4.82442 22.1036 399.433 -0.516251 -0.820417 0.245765
-5.03788 22.0703 399.244 -0.465008 -0.855313 0.228489
-5.08169 22.0786 399.065 -0.541933 -0.832716 0.113548
-5.08044 22.0944 398.886 -0.66196 -0.743651 0.0937621
-5.09375 22.1072 398.707 -0.598787 -0.784422 0.161665
-5.2608 22.0867 398.521 -0.487395 -0.86438 0.123665
-5.26027 22.1022 398.342 -0.450974 -0.891924 0.0330765
-5.27901 22.1133 398.163 -0.449367 -0.89332 -0.00701517
-5.27749 22.1291 397.984 -0.447766 -0.894106 0.0089567
-5.27624 22.1448 397.805 -0.457835 -0.887899 0.0449756
-5.31229 22.1521 397.626 -0.505309 -0.861893 -0.042466
-5.31122 22.1678 397.447 -0.432925 -0.900858 0.0321133
-5.32821 22.1795 397.268 -0.415147 -0.897495 0.148848
-5.47022 22.1643 397.084 -0.491513 -0.870839 0.00740431
-5.46879 22.1801 396.905 -0.475884 -0.872273 -0.112582
-5.48438 22.1919 396.727 -0.444884 -0.895483 0.0137266
-5.48349 22.2075 396.548 -0.446711 -0.893354 0.0486684
-5.53642 22.2114 396.368 -0.420649 -0.898764 0.123605
-5.57215 22.2191 396.188 -0.445526 -0.893898 -0.0495342
-5.53348 22.2428 396.011 -0.404909 -0.904251 -0.135571
-5.50683 22.2638 395.833 -0.377094 -0.924941 -0.0477973
-5.49047 22.2827 395.655 -0.443197 -0.893135 -0.0767255
-5.50281 22.2954 395.476 -0.518157 -0.854444 0.0379401
-5.56783 22.2968 395.296 -0.587645 -0.806422 0.0660052
-5.56646 22.3124 395.117 -0.63575 -0.771875 -0.00562734
-5.56486 22.3281 394.939 -0.650003 -0.748214 -0.132938
-5.58877 22.3384 394.76 -0.573224 -0.809753 -0.125361
-5.59442 22.3525 394.581 -0.505238 -0.862936 0.00870566
-5.62016 22.3623 394.402 -0.516836 -0.855777 -0.0229447
-5.59109 22.3839 394.224 -0.548684 -0.835771 -0.0207867
-5.61677 22.3938 394.045 -0.577579 -0.805552 -0.13224
-5.58045 22.417 393.868 -0.530898 -0.834607 -0.146896
-5.6129 22.4254 393.688 -0.482991 -0.871675 -0.0830814
-5.57629 22.4487 393.511 -0.549376 -0.827627 -0.114977
-5.57433 22.4645 393.332 -0.623733 -0.770073 -0.133958
-5.54025 22.4873 393.155 -0.620412 -0.755477 -0.210579
-5.50276 22.5107 392.978 -0.601481 -0.779623 -0.174378
-5.50056 22.5266 392.799 -0.562207 -0.794726 -0.228768
-5.49445 22.5433 392.621 -0.485966 -0.852162 -0.194053
-5.47615 22.5628 392.442 -0.427645 -0.843722 -0.324427
-5.30955 22.6139 392.269 -0.392053 -0.847983 -0.356678
-5.28291 22.6352 392.09 -0.40439 -0.865366 -0.295991
-5.15939 22.6781 391.914 -0.416753 -0.84797 -0.327511
-5.07722 22.7104 391.738 -0.437297 -0.870323 -0.226515
-5.07432 22.7265 391.559 -0.45598 -0.857085 -0.239766
-4.9599 22.7667 391.383 -0.50979 -0.787045 -0.347382
-4.95689 22.7827 391.204 -0.531834 -0.81445 -0.232
-4.95463 22.7986 391.026 -0.463415 -0.86689 -0.183705
-4.84362 22.8382 390.849 -0.447402 -0.822686 -0.350741
-4.82652 22.8568 390.67 -0.361539 -0.762802 -0.536118
-4.53778 22.9352 390.497 -0.382327 -0.812384 -0.440295
-4.53294 22.9517 390.317 -0.455007 -0.802284 -0.386405
-4.39501 22.9967 390.145 -0.388892 -0.859319 -0.332164
-4.39172 23.0132 389.963 -0.334682 -0.937815 -0.0921457
-4.3857 23.03 389.784 -0.402655 -0.888826 -0.218762
-4.34478 23.0544 389.606 -0.447885 -0.828146 -0.337006
-4.30858 23.0777 389.427 -0.422907 -0.835742 -0.350264
-4.14911 23.1278 389.251 -0.383295 -0.745677 -0.545023
-3.95005 23.1856 389.075 -0.360567 -0.766125 -0.532019
-3.90177 23.2124 388.896 -0.427123 -0.854783 -0.294808
-3.85421 23.2382 388.717 -0.467707 -0.783803 -0.408539
-3.71939 23.283 388.54 -0.368296 -0.73877 -0.564427
-3.46839 23.3531 388.363 -0.330797 -0.816667 -0.472894
-3.39831 23.3834 388.187 -0.332229 -0.82724 -0.453098
-3.18144 23.4445 388.009 -0.331327 -0.81454 -0.476179
-3.10787 23.4833 387.829 -0.344112 -0.801846 -0.488498
-2.98875 23.5192 387.652 -0.346638 -0.796965 -0.49466
-2.76511 23.5832 387.475 -0.345409 -0.855343 -0.386109
-2.72391 23.6078 387.295 -0.350448 -0.745971 -0.566315
-2.47053 23.6762 387.118 -0.363215 -0.748916 -0.554256
-2.39246 23.711 386.939 -0.40496 -0.735069 -0.543766
-2.2251 23.759 386.761 -0.330238 -0.625431 -0.70695
-1.9685 23.8342 386.582 -0.268004 -0.825791 -0.496229
-1.82002 23.8741 386.405 -0.293849 -0.777415 -0.556128
-1.55281 23.9612 386.224 -0.271733 -0.584955 -0.764191
-1.18799 24.0507 386.047 -0.251462 -0.704077 -0.66411
-0.910331 24.1169 385.865 -0.321695 -0.73634 -0.595244
-0.768993 24.1732 385.689 -0.346399 -0.62815 -0.696732
-0.618999 24.2215 385.509 -0.24764 -0.615879 -0.747908
-0.0944531 24.3528 385.331 -0.200103 -0.736813 -0.645805
0.113595 24.4024 385.154 -0.252313 -0.676744 -0.691632
0.341642 24.4776 384.971 -0.242819 -0.64371 -0.725724
0.593037 24.5423 384.792 -0.173119 -0.691402 -0.701423
1.0241 24.6575 384.61 -0.133404 -0.639649 -0.757002
1.58911 24.7851 384.434 -0.105943 -0.682403 -0.723258
2.02779 24.906 384.25 -0.109476 -0.73643 -0.667597
-4.35752 22.249 401.082 -0.385746 -0.888011 0.250275
-4.49346 22.2296 400.895 -0.336862 -0.891314 0.303454
-4.58274 22.2315 400.713 -0.334188 -0.922589 0.192739
-4.59591 22.2439 400.535 -0.348605 -0.91347 0.209873
-4.76853 22.2243 400.348 -0.394494 -0.849908 0.34933
-4.82991 22.2242 400.165 -0.563927 -0.780409 0.270089
-4.88278 22.2283 399.985 -0.613654 -0.766247 0.190512
-4.99162 22.2201 399.8 -0.562219 -0.821445 0.0955918
-5.00242 22.2333 399.621 -0.496525 -0.857304 0.135985
-5.17018 22.2124 399.435 -0.42138 -0.861164 0.284314
-5.17 22.2278 399.256 -0.512995 -0.84656 0.142031
-5.13193 22.2512 399.079 -0.601144 -0.796438 -0.0656674
-5.13095 22.2668 398.9 -0.563733 -0.811023 0.156351
-5.34134 22.237 398.713 -0.507291 -0.80313 0.31247
-5.35952 22.2484 398.534 -0.596074 -0.765785 0.24139
-5.46727 22.2405 398.351 -0.682574 -0.725638 0.0868402
-5.46876 22.2555 398.172 -0.56713 -0.82354 0.0120274
-5.52933 22.2578 397.991 -0.48168 -0.876325 -0.00632792
-5.54505 22.2697 397.812 -0.480497 -0.876526 -0.0287297
-5.54398 22.2853 397.634 -0.492005 -0.866443 0.0849009
-5.67856 22.2717 397.45 -0.448612 -0.891953 0.0562743
-5.67716 22.2874 397.271 -0.406827 -0.91288 0.0337911
-5.65248 22.3078 397.094 -0.469893 -0.882231 0.0294839
-5.65063 22.3236 396.916 -0.516927 -0.854295 -0.0544621
-5.65753 22.3375 396.737 -0.515536 -0.856627 0.0203272
-5.73174 22.3368 396.556 -0.52044 -0.847009 0.108252
-5.7906 22.3395 396.375 -0.535093 -0.8355 0.124959
-5.8408 22.344 396.195 -0.574206 -0.817305 0.0479637
-5.90638 22.3452 396.015 -0.527342 -0.8464 -0.0742835
-5.90444 22.361 395.836 -0.451011 -0.876025 -0.170788
-5.8438 22.3893 395.66 -0.443928 -0.872675 -0.203385
-5.76499 22.4217 395.484 -0.468477 -0.879959 -0.0787561
-5.76309 22.4374 395.306 -0.517434 -0.855604 -0.014242
-5.76169 22.4531 395.128 -0.512567 -0.857582 -0.0427443
-5.79782 22.4606 394.948 -0.462178 -0.88646 -0.024077
-5.79639 22.4763 394.77 -0.466989 -0.884036 -0.0200161
-5.82909 22.4846 394.59 -0.484243 -0.874849 -0.0121687
-5.83197 22.4993 394.412 -0.504477 -0.860043 -0.0763412
-5.83006 22.5151 394.234 -0.505281 -0.859937 -0.0721078
-5.83739 22.5289 394.055 -0.505433 -0.860853 -0.0588997
-5.85647 22.5402 393.876 -0.491601 -0.868587 -0.0623287
-5.85439 22.556 393.698 -0.478003 -0.857344 -0.190983
-5.73745 22.5982 393.523 -0.470014 -0.854213 -0.222275
-5.73405 22.6142 393.344 -0.464224 -0.875645 -0.133202
-5.70812 22.6337 393.167 -0.465028 -0.869884 -0.164472
-5.70598 22.6496 392.988 -0.451742 -0.884574 -0.11601
-5.70381 22.6654 392.81 -0.488016 -0.867922 -0.0924718
-5.69569 22.6825 392.632 -0.554798 -0.825051 -0.107191
-5.69338 22.6985 392.453 -0.566934 -0.767849 -0.298318
-5.65698 22.7217 392.276 -0.501172 -0.763943 -0.406471
-5.5272 22.7652 392.1 -0.455227 -0.823598 -0.338311
-5.50994 22.7843 391.922 -0.41656 -0.840749 -0.345859
