-12.9604 61.0791 389.972 -0.726749 0.408605 -0.552158
-12.8336 61.0929 389.845 -0.704399 0.312948 -0.637091
-12.7259 61.0937 389.699 -0.724441 0.114957 -0.679683
-12.5965 61.107 389.574 -0.803822 0.0152469 -0.594675
-12.4822 61.115 389.434 -0.924381 0.111962 -0.364669
-12.4245 61.1087 389.233 -0.830853 0.344314 -0.437184
-12.3088 61.1172 389.093 -0.809049 0.353603 -0.469473
-12.246 61.0962 388.899 -0.789993 0.301973 -0.533595
-12.1022 61.1268 388.79 -0.651272 0.348637 -0.674016
-11.9738 61.14 388.667 -0.685502 0.295125 -0.665573
-11.8452 61.1531 388.543 -0.775988 0.2504 -0.578915
-11.769 61.1508 388.362 -0.8114 0.278627 -0.513806
-11.6481 61.1595 388.229 -0.795611 0.270114 -0.542256
-11.5587 61.1543 388.062 -0.784669 0.246921 -0.568616
-11.4528 61.1656 387.914 -0.697372 0.279671 -0.659891
-11.2978 61.1872 387.818 -0.650223 0.291521 -0.701588
-11.1689 61.2005 387.695 -0.675576 0.254472 -0.691983
-11.0336 61.2181 387.578 -0.816344 0.245916 -0.522598
-10.9402 61.2184 387.416 -0.752138 0.404489 -0.520266
-10.8089 61.2318 387.295 -0.564785 0.485071 -0.667626
-10.6892 61.2438 387.161 -0.593076 0.399591 -0.698991
-10.551 61.2579 387.047 -0.660459 0.321301 -0.678646
-10.4355 61.2672 386.909 -0.643323 0.300845 -0.704009
-10.3034 61.281 386.789 -0.640874 0.242593 -0.728306
-10.1739 61.2944 386.666 -0.535345 0.284811 -0.795166
-9.95688 61.3424 386.637 -0.452598 0.41974 -0.786749
-9.80171 61.3579 386.541 -0.512436 0.470083 -0.718632
-9.65185 61.3781 386.44 -0.551959 0.445371 -0.704973
-9.52245 61.3915 386.317 -0.524995 0.412659 -0.744374
-9.36124 61.4135 386.227 -0.441702 0.346059 -0.827733
-9.16599 61.4499 386.174 -0.472616 0.316966 -0.822293
-9.0068 61.4742 386.083 -0.518062 0.332868 -0.787916
-8.87204 61.4895 385.965 -0.590473 0.270885 -0.760239
-8.74203 61.5028 385.842 -0.629583 0.200341 -0.750658
-8.60854 61.5165 385.723 -0.49889 0.250074 -0.829802
-8.43423 61.5514 385.647 -0.357458 0.254552 -0.898569
-8.23627 61.5784 385.597 -0.426801 0.206199 -0.880524
-8.08854 61.5995 385.493 -0.318413 0.262418 -0.910906
-7.85304 61.6472 385.482 -0.314325 0.228557 -0.921391
-7.68373 61.6729 385.4 -0.559155 0.123042 -0.819882
-7.54626 61.6896 385.285 -0.355489 0.222878 -0.907719
-7.24517 61.7583 385.343 -0.193906 0.423471 -0.884914
-7.07773 61.7842 385.259 -0.311921 0.420172 -0.852151
-6.93454 61.8017 385.15 -0.33173 0.301871 -0.893772
-6.70722 61.8298 385.128 -0.349556 0.342575 -0.87204
-6.52422 61.8824 385.061 -0.414144 0.361995 -0.835131
-6.33533 61.9114 385.001 -0.197396 0.444695 -0.87366
-6.05624 61.974 385.032 -0.199114 0.477956 -0.855519
-5.91749 61.9913 384.918 -0.239241 0.377388 -0.894619
-5.72186 62.0344 384.864 -0.271235 0.237205 -0.932826
-5.5426 62.0692 384.792 -0.379353 0.202188 -0.90289
-5.33917 62.0895 384.744 -0.0470256 0.259243 -0.964667
-5.0295 62.1611 384.808 -0.0579668 0.287392 -0.956057
-4.79736 62.2279 384.79 -0.227344 0.405197 -0.885511
-4.57016 62.252 384.768 -0.176513 0.413435 -0.893261
-4.3771 62.2751 384.709 -0.247665 0.323063 -0.913396
-4.18419 62.3191 384.651 -0.121627 0.337739 -0.933349
-3.89961 62.3742 384.687 -0.164597 0.325626 -0.931062
-3.74381 62.4049 384.589 -0.0398282 0.294833 -0.954718
-3.38592 62.469 384.702 0.0389469 0.325997 -0.944568
-3.16031 62.5356 384.676 -0.119422 0.403099 -0.907331
-2.92248 62.5838 384.663 -0.0888824 0.372114 -0.923921
-2.62128 62.6521 384.715 -0.0886197 0.429255 -0.898825
-2.40882 62.6921 384.675 -0.0249258 0.479763 -0.877044
-2.12451 62.7628 384.71 -0.0592694 0.352415 -0.933965
1.24691 63.5248 385.316 0.0887733 0.621968 -0.777995
1.60158 63.6078 385.418 0.0866619 0.627199 -0.774023
1.94464 63.689 385.508 0.0550714 0.63358 -0.771715
2.30553 63.7758 385.616 0.142128 0.587679 -0.796513
2.78466 63.9001 385.844 0.153483 0.603322 -0.782589
3.12069 63.9696 385.926 0.156175 0.616369 -0.771815
3.66408 64.1237 386.217 0.172248 0.629271 -0.757858
-13.7251 61.3081 391.815 -0.814677 0.431893 -0.387
-13.6131 61.3162 391.673 -0.829159 0.443977 -0.339675
-13.5407 61.3136 391.486 -0.817538 0.472056 -0.329841
-13.504 61.3103 391.262 -0.82045 0.392407 -0.415787
-13.4092 61.2943 391.096 -0.87276 0.233922 -0.428451
-13.3012 61.3018 390.949 -0.924848 0.217955 -0.311692
-13.2663 61.2657 390.718 -0.85203 0.379638 -0.360443
-13.1754 61.2744 390.553 -0.744768 0.404374 -0.53085
-13.0465 61.2888 390.428 -0.851595 0.311195 -0.421833
-12.9615 61.2953 390.259 -0.872011 0.360401 -0.331223
-12.8769 61.297 390.085 -0.770429 0.468921 -0.431918
-12.8207 61.2953 389.884 -0.800721 0.386554 -0.457627
-12.7393 61.2846 389.705 -0.757861 0.289151 -0.58484
-12.6105 61.2977 389.581 -0.712957 0.192598 -0.674239
-12.4831 61.3059 389.455 -0.807172 0.133662 -0.574986
-12.3544 61.3188 389.331 -0.851922 0.271713 -0.447661
-12.301 61.3088 389.124 -0.853123 0.318615 -0.413116
-12.1977 61.3197 388.974 -0.767519 0.310769 -0.560658
-12.0688 61.3365 388.849 -0.693665 0.32535 -0.642632
-11.972 61.3471 388.692 -0.694282 0.337651 -0.635582
-11.8413 61.3414 388.567 -0.725673 0.354934 -0.589423
-11.7172 61.3539 388.439 -0.817997 0.296272 -0.493056
-11.6489 61.3448 388.248 -0.812714 0.270092 -0.516281
-11.5281 61.3569 388.116 -0.762141 0.292459 -0.577589
-11.398 61.3705 387.994 -0.680606 0.338859 -0.649576
-11.281 61.3798 387.857 -0.673903 0.323774 -0.664098
-11.1681 61.3856 387.716 -0.660188 0.272824 -0.699799
-11.0162 61.4007 387.616 -0.682161 0.281846 -0.674699
-10.8876 61.4139 387.492 -0.713315 0.3396 -0.613069
-10.7598 61.4403 387.368 -0.695811 0.336198 -0.63468
-10.6405 61.4444 387.234 -0.690086 0.285568 -0.665006
-10.5115 61.4576 387.11 -0.687054 0.284532 -0.66858
-10.3852 61.47 386.984 -0.681765 0.353265 -0.640625
-10.256 61.4834 386.86 -0.574508 0.429965 -0.69647
-10.0759 61.507 386.791 -0.381185 0.485203 -0.786941
-9.87923 61.5468 386.74 -0.3949 0.452451 -0.799588
-9.73365 61.5631 386.634 -0.556327 0.372868 -0.742611
-9.58729 61.5941 386.53 -0.598822 0.387725 -0.700772
-9.44683 61.6107 386.418 -0.595931 0.382699 -0.70598
-9.31237 61.6295 386.301 -0.46615 0.380833 -0.798543
-9.14697 61.6459 386.215 -0.45957 0.284829 -0.84123
-8.9995 61.6625 386.111 -0.586676 0.21294 -0.781325
-8.85429 61.6811 386.004 -0.650179 0.264591 -0.712221
-8.72476 61.6944 385.88 -0.576565 0.330891 -0.74705
-8.53441 61.7186 385.822 -0.483142 0.434535 -0.7601
-8.38127 61.7489 385.723 -0.403343 0.492471 -0.771224
-8.1969 61.78 385.659 -0.371749 0.470831 -0.800075
-7.99825 61.8159 385.608 -0.355961 0.433216 -0.828019
-7.83259 61.8492 385.524 -0.403663 0.37567 -0.834223
-7.69417 61.8766 385.411 -0.47867 0.318942 -0.818017
-7.47444 61.9001 385.381 -0.147105 0.366184 -0.918841
-7.216 61.9554 385.393 -0.219551 0.386812 -0.895641
-7.08019 61.9701 385.276 -0.443118 0.389586 -0.807384
-6.8432 62.0188 385.265 -0.300834 0.422381 -0.85504
-6.67028 62.0463 385.187 -0.342392 0.361158 -0.867372
-6.4998 62.0731 385.106 -0.290186 0.345499 -0.892425
-6.23413 62.1471 385.127 -0.150489 0.436134 -0.887209
-6.05023 62.1652 385.058 -0.314814 0.368877 -0.874541
-5.88628 62.1859 384.972 -0.379014 0.369071 -0.848608
-5.66504 62.2117 384.941 -0.313978 0.44502 -0.838675
-5.48484 62.2467 384.87 -0.310732 0.42252 -0.851424
-5.26181 62.3016 384.844 -0.0752467 0.48079 -0.873601
-4.97803 62.3655 384.881 -0.0361668 0.485409 -0.873539
-4.71648 62.4207 384.894 -0.220297 0.457613 -0.861429
-4.56982 62.4368 384.788 -0.285883 0.380648 -0.879419
-4.33433 62.4887 384.773 -0.228253 0.413333 -0.881508
-4.08297 62.5496 384.774 -0.167968 0.508488 -0.844528
-3.88821 62.5748 384.719 -0.213562 0.522295 -0.82559
-3.62774 62.653 384.728 -0.0533289 0.494184 -0.86772
-3.35828 62.6851 384.75 0.0352593 0.439874 -0.897367
-3.07014 62.7587 384.788 -0.153951 0.425586 -0.891726
-2.87377 62.7876 384.732 -0.0421754 0.448603 -0.892736
-2.55634 62.8568 384.802 -0.0126155 0.439538 -0.898135
-2.30399 62.8913 384.804 -0.154736 0.444418 -0.882355
-2.10566 62.942 384.748 -0.124236 0.439554 -0.889583
0.00170872 63.4311 385.099 0.035279 0.427876 -0.903149
0.179598 63.4511 385.022 0.158008 0.42924 -0.889262
0.684886 63.5672 385.282 0.208762 0.430714 -0.878011
1.03955 63.6432 385.386 0.139561 0.496077 -0.856989
1.42447 63.7696 385.516 0.139269 0.534133 -0.83385
1.79615 63.8614 385.636 0.101655 0.567181 -0.817296
2.14927 63.9447 385.736 0.0680975 0.603329 -0.79458
2.46858 64.0156 385.801 0.160452 0.593591 -0.788609
2.97101 64.1504 386.052 0.173827 0.59609 -0.783876
3.36299 64.2429 386.191 0.191437 0.593426 -0.781791
3.89698 64.389 386.473 0.217315 0.605411 -0.765671
-13.6301 61.5272 391.942 -0.785449 0.464729 -0.408774
-13.505 61.5395 391.813 -0.808469 0.451198 -0.377887
-13.4851 61.5236 391.569 -0.881816 0.411916 -0.22962
-13.4148 61.5067 391.378 -0.878398 0.398031 -0.264551
-13.3932 61.4875 391.135 -0.811029 0.413247 -0.414077
-13.2758 61.4966 390.998 -0.785433 0.431127 -0.444101
-13.1679 61.4976 390.849 -0.855867 0.378649 -0.352303
-13.1069 61.493 390.65 -0.775309 0.438476 -0.45457
-12.9996 61.501 390.503 -0.748573 0.471535 -0.466147
-12.9208 61.4958 390.323 -0.82536 0.370678 -0.425885
-12.8176 61.5003 390.171 -0.892076 0.270026 -0.362334
-12.7642 61.4885 389.964 -0.875127 0.33071 -0.353248
-12.6694 61.4692 389.798 -0.761931 0.469995 -0.445606
-12.5898 61.4784 389.622 -0.679139 0.51031 -0.527593
-12.4509 61.5036 389.511 -0.637885 0.45108 -0.624204
-12.3223 61.5167 389.387 -0.809456 0.312989 -0.496809
-12.2418 61.5139 389.209 -0.86413 0.326537 -0.382953
-12.1659 61.5039 389.027 -0.709437 0.469327 -0.525768
-12.0362 61.5042 388.902 -0.653686 0.420307 -0.629314
-11.8916 61.5187 388.795 -0.664668 0.371061 -0.648483
-11.7635 61.5351 388.671 -0.749029 0.391711 -0.53434
-11.7106 61.5422 388.466 -0.814702 0.368638 -0.447624
-11.5821 61.5553 388.341 -0.750765 0.44402 -0.489079
-11.4914 61.556 388.177 -0.67201 0.501815 -0.544595
-11.3622 61.5692 388.053 -0.65899 0.466739 -0.589819
-11.2423 61.5794 387.919 -0.69933 0.3941 -0.596341
-11.1134 61.5926 387.795 -0.633539 0.372244 -0.67828
-10.9734 61.5954 387.682 -0.618774 0.351169 -0.702708
-10.8447 61.6124 387.558 -0.719015 0.342239 -0.604889
-10.7504 61.6184 387.398 -0.733411 0.354794 -0.579853
-10.6278 61.6333 387.267 -0.678076 0.354852 -0.643656
-10.4928 61.6471 387.15 -0.609502 0.370769 -0.70074
-10.3253 61.6766 387.068 -0.602891 0.398882 -0.690953
-10.1856 61.7058 386.957 -0.505918 0.427423 -0.749238
-10.0058 61.7258 386.887 -0.42923 0.363418 -0.826855
-9.87629 61.7426 386.764 -0.500147 0.24816 -0.82962
-9.70467 61.761 386.685 -0.555102 0.22079 -0.801943
-9.55978 61.7756 386.578 -0.623557 0.253437 -0.739558
-9.43047 61.7878 386.454 -0.619107 0.246175 -0.745724
-9.2732 61.8035 386.36 -0.577819 0.232488 -0.782352
-9.13854 61.8457 386.245 -0.532691 0.242647 -0.810779
-8.96004 61.8739 386.174 -0.531987 0.316385 -0.785424
-8.80965 61.889 386.072 -0.575742 0.39013 -0.718554
-8.65468 61.9044 385.975 -0.454862 0.43121 -0.779204
-8.4654 61.9397 385.915 -0.403366 0.475048 -0.782065
-8.28564 61.9777 385.845 -0.429621 0.478726 -0.765668
-8.11211 61.9949 385.769 -0.416045 0.465712 -0.781037
-7.97454 62.0109 385.652 -0.422958 0.422311 -0.801723
-7.7853 62.0292 385.592 -0.464643 0.35173 -0.812645
-7.61834 62.0457 385.506 -0.385206 0.406542 -0.828457
-7.41792 62.1 385.46 -0.156233 0.469492 -0.869004
-7.15949 62.1773 385.473 -0.249943 0.463924 -0.849884
-6.96268 62.1985 385.42 -0.392605 0.459986 -0.796414
-6.81546 62.2117 385.314 -0.376586 0.446297 -0.811789
-6.646 62.2344 385.233 -0.362662 0.400651 -0.841401
-6.41599 62.2877 385.214 -0.175826 0.384513 -0.90622
-6.17879 62.3193 385.202 -0.248623 0.330472 -0.91048
-6.03132 62.3527 385.098 -0.325068 0.377412 -0.867116
-5.7616 62.414 385.121 -0.286531 0.466612 -0.836764
-5.62648 62.4293 385.002 -0.343916 0.395009 -0.851874
-5.41162 62.4711 384.967 -0.174081 0.331562 -0.927234
-5.13851 62.5101 384.993 -0.0495352 0.431199 -0.900896
-4.86077 62.5984 385.021 -0.105557 0.487662 -0.866627
-4.68003 62.636 384.954 -0.313546 0.420093 -0.851593
-4.48928 62.6545 384.891 -0.239624 0.457312 -0.856415
-4.2213 62.6978 384.911 -0.121386 0.526929 -0.841196
-3.98307 62.761 384.899 -0.169432 0.496229 -0.851499
-3.74276 62.7901 384.89 -0.196664 0.505722 -0.839981
-3.52069 62.8573 384.859 -0.101112 0.549349 -0.829453
-3.25994 62.8835 384.872 -0.0595184 0.523252 -0.850097
-3.02111 62.9576 384.859 -0.112939 0.467115 -0.876954
-2.72425 63.0396 384.906 -0.0506213 0.491114 -0.869623
-2.47796 63.0823 384.901 -0.0638315 0.51828 -0.852825
-2.25941 63.1177 384.868 -0.149642 0.473855 -0.867795
-1.98607 63.1765 384.891 -0.130247 0.456926 -0.879917
0.00791473 63.615 385.125 -0.00381727 0.63115 -0.775651
0.473254 63.7699 385.345 0.0770354 0.66373 -0.743994
0.7582 63.8351 385.371 0.176133 0.585092 -0.791609
1.16155 63.9041 385.527 0.165293 0.515024 -0.841088
1.54865 63.9997 385.662 0.136301 0.573151 -0.808034
1.9585 64.0957 385.821 0.112612 0.587004 -0.801714
2.30784 64.189 385.916 0.0997769 0.632623 -0.768006
2.82147 64.3291 386.179 0.145353 0.640634 -0.753963
3.19604 64.4176 386.3 0.160387 0.638897 -0.752387
3.6809 64.5398 386.533 0.169534 0.673116 -0.719842
-13.5806 61.7258 392.017 -0.872641 0.204478 -0.443494
-13.4749 61.7369 391.866 -0.885527 0.184804 -0.42625
-13.39 61.7373 391.696 -0.946421 0.250477 -0.203835
-13.3954 61.7039 391.421 -0.915113 0.326639 -0.236377
-13.2801 61.7124 391.281 -0.826021 0.36319 -0.431024
-13.1771 61.7162 391.125 -0.810705 0.407639 -0.420223
-13.1572 61.696 390.886 -0.832949 0.38199 -0.400349
-13.0189 61.71 390.769 -0.745949 0.453476 -0.48777
-12.9113 61.7211 390.622 -0.822632 0.426985 -0.375446
-12.8866 61.6945 390.382 -0.866095 0.362693 -0.343996
-12.8086 61.6912 390.202 -0.85031 0.317672 -0.419593
-12.7024 61.6959 390.05 -0.827553 0.255872 -0.499686
-12.5745 61.7089 389.927 -0.78286 0.353742 -0.511857
-12.4662 61.7204 389.782 -0.763562 0.429395 -0.482279
-12.3807 61.7234 389.61 -0.736487 0.42439 -0.526764
-12.3002 61.7111 389.431 -0.783538 0.317638 -0.534017
-12.1745 61.7234 389.304 -0.800664 0.304321 -0.516068
-12.0541 61.7332 389.169 -0.796038 0.363891 -0.483638
-11.9993 61.7222 388.966 -0.717181 0.379209 -0.584681
-11.8688 61.7409 388.843 -0.648733 0.342629 -0.679522
-11.7411 61.7486 388.717 -0.791799 0.230275 -0.565709
-11.6144 61.7633 388.591 -0.78857 0.290357 -0.54208
-11.4927 61.7736 388.459 -0.720618 0.422711 -0.549568
-11.3843 61.7716 388.312 -0.723305 0.467068 -0.508603
-11.2818 61.7819 388.16 -0.704593 0.500641 -0.5029
-11.195 61.7821 387.991 -0.708305 0.442102 -0.550318
-11.0743 61.7926 387.858 -0.652997 0.386672 -0.651214
-10.9452 61.8058 387.734 -0.610898 0.392651 -0.68748
-10.7909 61.8272 387.638 -0.695232 0.384698 -0.607173
-10.6793 61.839 387.496 -0.735754 0.364495 -0.570798
-10.5504 61.8524 387.372 -0.664144 0.375637 -0.646382
-10.4228 61.8608 387.246 -0.577195 0.392851 -0.715901
-10.2731 61.8853 387.145 -0.574302 0.390342 -0.71959
-10.1466 61.8889 387.017 -0.588684 0.296777 -0.751914
-10.0117 61.9162 386.901 -0.55849 0.196996 -0.80578
-9.85049 61.9322 386.811 -0.523233 0.257972 -0.812205
-9.68658 61.9568 386.725 -0.517599 0.267196 -0.812833
-9.53699 61.9767 386.623 -0.625688 0.288684 -0.724691
-9.40572 61.9908 386.501 -0.60986 0.401073 -0.683529
-9.27222 62.0044 386.382 -0.547422 0.403968 -0.732898
-9.10159 62.0212 386.302 -0.448089 0.369624 -0.813999
-8.91252 62.05 386.241 -0.440724 0.358332 -0.823019
-8.75154 62.0888 386.153 -0.522719 0.392563 -0.756743
-8.60031 62.1069 386.052 -0.392054 0.47547 -0.787542
-8.38667 62.144 386.018 -0.399921 0.462767 -0.791144
-8.25601 62.1576 385.895 -0.452228 0.374021 -0.80969
-8.06197 62.1987 385.842 -0.481145 0.344586 -0.806077
-7.91196 62.2139 385.739 -0.506005 0.438915 -0.742504
-7.75377 62.2559 385.647 -0.410744 0.434804 -0.801395
-7.56428 62.2752 385.586 -0.27214 0.403115 -0.873749
-7.30476 62.3299 385.599 -0.179636 0.427189 -0.886138
-7.10741 62.3577 385.546 -0.262905 0.392271 -0.881479
-6.93081 62.3942 385.473 -0.403863 0.332932 -0.852086
-6.74297 62.4265 385.41 -0.42448 0.438433 -0.792207
-6.56109 62.4524 385.34 -0.352431 0.538678 -0.765257
-6.39495 62.4796 385.256 -0.247024 0.447441 -0.859521
-6.18161 62.5303 385.22 -0.245141 0.453663 -0.856794
-5.90812 62.5956 385.247 -0.248796 0.522564 -0.815492
-5.74085 62.6123 385.163 -0.383676 0.411597 -0.826668
-5.59573 62.6271 385.054 -0.415723 0.39987 -0.816871
-5.36928 62.6922 385.031 -0.0561902 0.40686 -0.911761
-5.07238 62.7229 385.082 0.00445845 0.38924 -0.921126
-4.82456 62.7913 385.079 -0.199918 0.368775 -0.907765
-4.63615 62.8202 385.018 -0.247537 0.390789 -0.886572
-4.3682 62.8819 385.037 -0.122798 0.514214 -0.848826
-4.12631 62.9445 385.03 -0.160536 0.503976 -0.848667
-3.9408 62.9754 384.962 -0.150334 0.445933 -0.882351
-3.68534 63.0094 384.968 -0.0951136 0.458525 -0.883577
-3.40704 63.0786 384.997 -0.101378 0.509954 -0.854207
-3.15765 63.1476 384.998 -0.133239 0.510841 -0.849287
-2.93848 63.1729 384.964 -0.0768046 0.511184 -0.856033
-2.62506 63.2457 385.029 -0.049192 0.545575 -0.836617
-2.36564 63.3255 385.036 -0.154281 0.55102 -0.820106
-2.13389 63.3569 385.018 -0.174622 0.496533 -0.850272
-1.94362 63.3798 384.954 -0.0282934 0.447032 -0.89407
0.331454 63.9126 385.476 0.0465414 0.717863 -0.694626
0.71228 63.9475 385.607 0.0268232 0.686976 -0.726185
0.970669 64.0615 385.611 0.0725139 0.627512 -0.775223
1.39942 64.1418 385.792 0.157773 0.609931 -0.77659
1.80986 64.2738 385.949 0.0894423 0.658394 -0.74734
2.15387 64.3559 386.039 0.120357 0.649575 -0.750711
2.66525 64.4895 386.301 0.129161 0.651958 -0.747173
2.97468 64.5567 386.356 0.15234 0.642733 -0.750791
3.53121 64.7113 386.661 0.212823 0.626403 -0.749884
-13.5839 61.9187 392.036 -0.86368 0.275947 -0.421794
-13.4723 61.9266 391.892 -0.804864 0.26251 -0.532243
-13.3623 61.937 391.747 -0.948585 0.174253 -0.26424
-13.3298 61.9004 391.511 -0.945936 0.239702 -0.218511
-13.2795 61.9 391.302 -0.806316 0.334465 -0.48784
-13.1511 61.9132 391.178 -0.868701 0.262394 -0.420129
-13.0675 61.9226 391.006 -0.810626 0.356349 -0.464652
-12.9358 61.9266 390.879 -0.76683 0.400128 -0.501865
-12.907 61.9017 390.649 -0.898898 0.293228 -0.325576
-12.7988 61.9111 390.499 -0.883251 0.370923 -0.286851
-12.773 61.88 390.259 -0.827771 0.447981 -0.3378
-12.6945 61.8857 390.082 -0.734415 0.388839 -0.556272
-12.555 61.8983 389.968 -0.718399 0.316808 -0.619303
-12.4518 61.9076 389.817 -0.835009 0.179419 -0.520162
-12.3528 61.9107 389.66 -0.882426 0.0953674 -0.460684
-12.2671 61.9096 389.488 -0.815005 0.20478 -0.542063
-12.1498 61.9217 389.351 -0.764164 0.239261 -0.599005
-12.0602 61.9288 389.186 -0.847877 0.173833 -0.500885
-11.9419 61.9287 389.048 -0.792308 0.2684 -0.547914
-11.8231 61.9232 388.911 -0.738689 0.305347 -0.600917
-11.7343 61.933 388.745 -0.74013 0.242102 -0.62737
-11.6048 61.9381 388.621 -0.675762 0.255108 -0.691567
-11.4616 61.9693 388.513 -0.698267 0.30438 -0.647901
-11.3371 61.9809 388.385 -0.723996 0.369003 -0.58281
-11.2083 61.996 388.261 -0.787947 0.412329 -0.4573
-11.1437 62.002 388.069 -0.767719 0.418863 -0.484934
-11.0141 62.0069 387.944 -0.648305 0.397253 -0.649531
-10.873 62.0166 387.833 -0.613351 0.374398 -0.695432
-10.744 62.0298 387.709 -0.726183 0.305804 -0.615746
-10.6632 62.0273 387.533 -0.752519 0.285009 -0.593704
-10.5283 62.041 387.415 -0.655674 0.359177 -0.664141
-10.3989 62.0504 387.291 -0.572918 0.40871 -0.710437
-10.2316 62.0676 387.208 -0.652185 0.437449 -0.619107
-10.1593 62.0762 387.024 -0.629317 0.466971 -0.621208
-9.97342 62.0941 386.96 -0.478936 0.435236 -0.762358
-9.81332 62.1364 386.872 -0.512297 0.351139 -0.783743
-9.66352 62.154 386.77 -0.481741 0.38559 -0.786922
-9.47796 62.1834 386.706 -0.489743 0.436854 -0.754527
-9.30545 62.2107 386.629 -0.604239 0.415313 -0.680008
-9.18875 62.2201 386.491 -0.587598 0.410858 -0.697083
-9.0448 62.2408 386.384 -0.4584 0.418276 -0.784165
-8.88991 62.2599 386.287 -0.407206 0.413374 -0.814436
-8.68981 62.2964 386.239 -0.419646 0.404446 -0.812601
-8.5035 62.3289 386.175 -0.41376 0.41018 -0.812745
-8.35744 62.3451 386.069 -0.51354 0.335204 -0.789883
-8.21673 62.3616 385.957 -0.490045 0.399828 -0.774592
-8.02085 62.4155 385.905 -0.383107 0.448689 -0.807408
-7.82551 62.4342 385.85 -0.519479 0.374488 -0.76805
-7.69543 62.4478 385.728 -0.430209 0.424027 -0.796945
-7.4782 62.4884 385.696 -0.223616 0.451163 -0.863972
-7.29281 62.5193 385.631 -0.211352 0.340263 -0.916271
-7.0779 62.5662 385.6 -0.329324 0.31705 -0.889396
-6.88983 62.6178 385.536 -0.300203 0.442783 -0.84488
-6.63735 62.6565 385.541 -0.290722 0.466153 -0.835573
-6.46376 62.6764 385.464 -0.468324 0.418711 -0.778045
-6.32744 62.692 385.346 -0.217245 0.452798 -0.864742
-6.00216 62.738 385.428 -0.156157 0.511283 -0.845106
-5.8704 62.7712 385.304 -0.411218 0.449274 -0.793128
-5.70563 62.8079 385.219 -0.407222 0.382112 -0.829554
-5.48051 62.8412 385.194 -0.341998 0.534891 -0.772612
-5.28839 62.903 385.135 -0.0852165 0.541989 -0.836054
-4.98849 62.9358 385.189 -0.052552 0.43367 -0.899538
-4.81476 62.9827 385.11 -0.203431 0.429128 -0.880037
-4.51551 63.0617 385.163 -0.108172 0.514189 -0.850828
-4.2721 63.1016 385.156 -0.151879 0.469513 -0.869765
-4.08037 63.1205 385.095 -0.229636 0.410041 -0.882685
-3.83276 63.1866 385.094 -0.113198 0.443252 -0.889221
-3.55432 63.2605 385.123 -0.0335131 0.455865 -0.889418
-3.3029 63.3011 385.124 -0.11575 0.518395 -0.847271
-3.08614 63.3454 385.091 -0.11235 0.543243 -0.832024
-2.79134 63.3889 385.136 -0.0364862 0.564636 -0.824533
-2.51253 63.4707 385.164 -0.0847213 0.555604 -0.82712
-2.27942 63.5151 385.146 -0.238583 0.587143 -0.773525
-2.09282 63.5894 385.076 -0.219659 0.640467 -0.735902
-1.78756 63.6366 385.135 0.117269 0.449474 -0.885563
0.823166 64.2319 385.739 -0.0284336 0.663137 -0.747958
1.17407 64.3462 385.835 0.0783049 0.654984 -0.751574
1.66119 64.4477 386.076 0.17212 0.59618 -0.784184
2.00522 64.5233 386.168 0.10074 0.647719 -0.75519
2.50914 64.6625 386.421 0.113753 0.672935 -0.730902
2.80992 64.7327 386.467 0.135249 0.650543 -0.74733
3.37973 64.8877 386.787 0.152603 0.682436 -0.714838
-13.4162 62.1318 391.972 -0.735665 0.517852 -0.436608
-13.3571 62.1196 391.775 -0.850592 0.414969 -0.322946
-13.2828 62.1169 391.588 -0.889411 0.384022 -0.247943
-13.2199 62.1157 391.39 -0.804691 0.427846 -0.411606
-13.1053 62.1216 391.25 -0.791355 0.361787 -0.492816
-13.0336 62.13 391.065 -0.786851 0.357067 -0.503358
-12.9187 62.1179 390.919 -0.817581 0.373949 -0.437862
-12.8477 62.1035 390.733 -0.83583 0.363036 -0.411817
-12.7248 62.1006 390.597 -0.855647 0.377533 -0.354031
-12.686 62.1055 390.378 -0.883656 0.403744 -0.236944
-12.6246 62.0971 390.179 -0.723936 0.534567 -0.436068
-12.5097 62.1055 390.039 -0.716275 0.537073 -0.445536
-12.4625 62.1029 389.828 -0.801172 0.428929 -0.417305
-12.3597 62.0958 389.672 -0.790796 0.318901 -0.52244
-12.2408 62.1058 389.537 -0.80224 0.203288 -0.561324
-12.1374 62.106 389.385 -0.793025 0.26306 -0.549464
-12.0258 62.1137 389.242 -0.739043 0.408806 -0.535437
-11.9083 62.1259 389.105 -0.737607 0.394717 -0.547845
-11.8216 62.1261 388.936 -0.77893 0.313523 -0.543112
-11.6926 62.1393 388.811 -0.711336 0.363309 -0.60167
-11.5633 62.1525 388.687 -0.605818 0.412655 -0.68022
-11.4103 62.1714 388.589 -0.614562 0.406962 -0.675793
-11.2815 62.1846 388.466 -0.655335 0.405476 -0.637279
-11.1511 62.1857 388.341 -0.802421 0.376978 -0.462611
-11.0945 62.1831 388.139 -0.799547 0.419387 -0.429929
-10.977 62.1953 388.003 -0.645002 0.49315 -0.58376
-10.8634 62.2073 387.864 -0.644516 0.459848 -0.610852
-10.7343 62.2204 387.739 -0.699003 0.448924 -0.556652
-10.6095 62.2322 387.611 -0.640031 0.501894 -0.581776
-10.4521 62.2478 387.517 -0.571862 0.518745 -0.635514
-10.318 62.2682 387.399 -0.516823 0.511149 -0.686746
-10.1435 62.2977 387.324 -0.610785 0.476966 -0.632017
-10.0144 62.311 387.2 -0.639191 0.542331 -0.545262
-9.91585 62.3142 387.043 -0.529634 0.577822 -0.620975
-9.78644 62.3277 386.92 -0.462426 0.494361 -0.73605
-9.56089 62.3788 386.9 -0.418424 0.451523 -0.788066
-9.42804 62.3926 386.78 -0.505276 0.454863 -0.733346
-9.2983 62.4006 386.656 -0.607107 0.422686 -0.672873
-9.16889 62.4139 386.533 -0.577947 0.434804 -0.690596
-8.98499 62.4452 386.467 -0.454775 0.506376 -0.732641
-8.80704 62.4744 386.395 -0.413601 0.509952 -0.754243
-8.64635 62.4974 386.305 -0.412747 0.441504 -0.796689
-8.49258 62.5195 386.207 -0.506072 0.331857 -0.796092
-8.34068 62.54 386.107 -0.438877 0.328323 -0.836415
-8.10234 62.5735 386.098 -0.42044 0.393407 -0.817595
-7.97049 62.6033 385.978 -0.473606 0.387563 -0.790881
-7.82019 62.6236 385.876 -0.446827 0.451793 -0.772159
-7.62397 62.6588 385.823 -0.360451 0.521318 -0.7735
-7.42488 62.7006 385.773 -0.344799 0.443472 -0.827313
-7.26952 62.7164 385.673 -0.252986 0.418922 -0.872068
-6.99529 62.7841 385.707 -0.203701 0.424395 -0.882267
-6.78641 62.8175 385.665 -0.266742 0.389544 -0.881535
-6.60941 62.8458 385.59 -0.362789 0.343275 -0.866341
-6.47364 62.8602 385.472 -0.384906 0.300311 -0.872732
-6.19579 62.9342 385.505 -0.116751 0.396708 -0.91049
-6.01463 62.9527 385.434 -0.23826 0.363852 -0.900469
-5.83361 62.9832 385.364 -0.45515 0.353263 -0.81734
-5.62682 63.0217 385.32 -0.224981 0.492506 -0.840727
-5.37286 63.0547 385.326 -0.2468 0.54567 -0.800833
-5.17714 63.1207 385.271 -0.20239 0.542328 -0.815425
-4.95971 63.1488 385.234 -0.0889707 0.447808 -0.889692
-4.6806 63.2062 385.274 -0.073131 0.39689 -0.914948
-4.41671 63.2468 385.285 -0.160177 0.445403 -0.880886
-4.27573 63.3002 385.171 -0.245512 0.495422 -0.833235
-3.98093 63.3606 385.22 -0.182328 0.462126 -0.867869
-3.79981 63.3858 385.147 -0.0965761 0.47095 -0.876858
-3.48924 63.458 385.21 0.00833031 0.402521 -0.915373
-3.21746 63.4936 385.231 -0.0659148 0.416685 -0.906658
-2.9386 63.5789 385.262 -0.0528934 0.540988 -0.839365
-2.67718 63.6124 385.274 -0.0583367 0.543346 -0.83748
-2.43642 63.6837 385.261 -0.0786788 0.523462 -0.848409
-2.14177 63.7234 385.311 -0.145585 0.582673 -0.799561
-1.86745 63.796 385.326 -0.323086 0.691355 -0.646253
1.14577 64.4981 386.092 0.0277631 0.685071 -0.727947
1.48975 64.6094 386.181 0.0335957 0.725358 -0.687551
1.83984 64.7059 386.277 0.149011 0.667991 -0.729097
2.33804 64.8033 386.529 0.136292 0.654111 -0.744018
2.67656 64.9019 386.612 0.100122 0.671399 -0.734302
-13.2521 62.3449 391.91 -0.834418 0.454037 -0.312405
-13.1786 62.3394 391.724 -0.8509 0.464979 -0.244465
-13.1703 62.3122 391.466 -0.804421 0.504498 -0.31367
-13.0739 62.3027 391.303 -0.771055 0.422171 -0.476703
-12.9682 62.3062 391.152 -0.741955 0.425411 -0.518197
-12.8377 62.3194 391.026 -0.763648 0.508227 -0.39818
-12.8076 62.3038 390.8 -0.745139 0.5339 -0.399648
-12.6769 62.317 390.673 -0.746178 0.550881 -0.373831
-12.6149 62.3177 390.477 -0.808142 0.50339 -0.305785
-12.4922 62.3286 390.346 -0.731075 0.517672 -0.444462
-12.3988 62.3298 390.182 -0.80698 0.482722 -0.34024
-12.3494 62.3165 389.97 -0.811715 0.510298 -0.284103
-12.3024 62.2859 389.753 -0.766387 0.522898 -0.373133
-12.2398 62.2937 389.559 -0.699029 0.477963 -0.531893
-12.061 62.3231 389.489 -0.637369 0.440264 -0.632399
-11.932 62.3363 389.365 -0.760242 0.381272 -0.525989
-11.8645 62.3288 389.174 -0.783434 0.406466 -0.470124
-11.7476 62.3382 389.037 -0.69694 0.479853 -0.532932
-11.6267 62.3484 388.904 -0.63523 0.499398 -0.589138
-11.4976 62.3616 388.78 -0.598784 0.464522 -0.65244
-11.36 62.3765 388.665 -0.621583 0.366266 -0.692448
-11.231 62.392 388.541 -0.683749 0.256083 -0.683307
-11.1066 62.4026 388.412 -0.813174 0.207299 -0.543852
-11.0034 62.407 388.259 -0.809229 0.28431 -0.514117
-10.8741 62.4202 388.135 -0.705082 0.410196 -0.578444
-10.7619 62.4215 387.993 -0.646347 0.449454 -0.616625
-10.6048 62.4503 387.899 -0.637489 0.474872 -0.606716
-10.5043 62.4542 387.745 -0.636478 0.472593 -0.60955
-10.3754 62.4699 387.621 -0.609156 0.419566 -0.672974
-10.2462 62.4832 387.497 -0.580727 0.40096 -0.708511
-10.1062 62.4975 387.384 -0.520309 0.421365 -0.742785
-9.93324 62.5227 387.307 -0.632836 0.45583 -0.625889
-9.81352 62.5349 387.173 -0.646306 0.547948 -0.531076
-9.68439 62.5482 387.049 -0.480593 0.613278 -0.626833
-9.54884 62.5622 386.932 -0.405739 0.573676 -0.711528
-9.34702 62.6011 386.886 -0.52033 0.543885 -0.658365
-9.21509 62.6152 386.765 -0.543212 0.598986 -0.588333
-9.04836 62.6408 386.681 -0.459068 0.596796 -0.658096
-8.88652 62.6649 386.592 -0.445306 0.522579 -0.727058
-8.74278 62.6829 386.484 -0.509227 0.431666 -0.744549
-8.59737 62.7017 386.377 -0.53853 0.39297 -0.745359
-8.447 62.7218 386.276 -0.497477 0.442927 -0.745877
-8.26508 62.7566 386.207 -0.364852 0.492141 -0.790367
-8.10833 62.7747 386.113 -0.414593 0.441366 -0.795807
-7.94171 62.8004 386.028 -0.385016 0.448879 -0.806394
-7.66203 62.863 386.063 -0.341357 0.526981 -0.77831
-7.53163 62.8766 385.94 -0.44733 0.552534 -0.703279
-7.39326 62.8909 385.826 -0.358728 0.526904 -0.77051
-7.14004 62.9467 385.832 -0.24376 0.518737 -0.819447
-6.98107 62.9628 385.738 -0.24599 0.442763 -0.862235
-6.78823 63.0005 385.682 -0.309145 0.278297 -0.909385
-6.58567 63.0418 385.635 -0.405726 0.285136 -0.86838
-6.38614 63.0884 385.587 -0.246456 0.375714 -0.893364
-6.1643 63.1132 385.556 -0.192841 0.400286 -0.89587
-5.9653 63.1572 385.506 -0.298719 0.453825 -0.83953
-5.72536 63.2131 385.497 -0.264313 0.524099 -0.809604
-5.51984 63.2448 385.452 -0.163103 0.486128 -0.858532
-5.28145 63.2834 385.442 -0.225633 0.441622 -0.868366
-5.10541 63.3223 385.365 -0.287475 0.473718 -0.832436
-4.86118 63.3816 385.362 -0.150175 0.503617 -0.850775
-4.66585 63.4354 385.304 -0.0275052 0.432071 -0.90142
-4.37462 63.4629 385.349 -0.107262 0.447987 -0.887582
-4.10542 63.5184 385.367 -0.256664 0.554706 -0.79147
-3.94701 63.5538 385.275 -0.14479 0.530778 -0.835051
-3.63595 63.6103 385.338 -0.173516 0.606121 -0.776215
-3.46335 63.6873 385.255 -0.115039 0.685388 -0.719034
-3.08621 63.7806 385.387 -0.0136986 0.603269 -0.79742
-2.8175 63.8118 385.408 -0.0562795 0.541527 -0.838797
-2.5814 63.8552 385.392 -0.0798552 0.497484 -0.86379
1.31337 64.768 386.281 0.146795 0.576461 -0.803831
1.74286 64.8672 386.461 0.0912271 0.651715 -0.752957
2.19021 64.9975 386.656 0.0935423 0.718136 -0.689587
2.5674 65.1034 386.779 0.114267 0.692954 -0.711869
-13.2011 62.5501 391.988 -0.776833 0.53131 -0.337994
-13.0967 62.5547 391.836 -0.813304 0.517317 -0.266308
-13.062 62.5108 391.601 -0.816584 0.545273 -0.189386
-13.0345 62.5156 391.368 -0.691512 0.613226 -0.381792
-12.8765 62.5378 391.277 -0.571734 0.620015 -0.53731
-12.7472 62.551 391.152 -0.722212 0.546079 -0.424509
-12.6499 62.553 390.992 -0.7269 0.533697 -0.432185
-12.5207 62.5534 390.866 -0.784872 0.511471 -0.34982
-12.5219 62.5436 390.601 -0.824442 0.490744 -0.281898
-12.4497 62.5305 390.413 -0.734257 0.520609 -0.435699
-12.3571 62.5314 390.249 -0.799673 0.437292 -0.411459
-12.2438 62.5392 390.107 -0.817459 0.50894 -0.269706
-12.2228 62.5163 389.864 -0.739141 0.616878 -0.270429
-12.0974 62.5285 389.736 -0.630828 0.663525 -0.402231
-12.0446 62.5162 389.528 -0.613873 0.591966 -0.522241
-11.9156 62.5294 389.404 -0.700755 0.472201 -0.534761
-11.7886 62.5417 389.278 -0.687184 0.528356 -0.498616
-11.6591 62.5549 389.154 -0.638965 0.585078 -0.499407
-11.5614 62.5577 388.995 -0.652919 0.547926 -0.522947
-11.4385 62.5703 388.864 -0.683875 0.477284 -0.551829
-11.36 62.5676 388.686 -0.689041 0.432754 -0.581331
-11.2301 62.5744 388.561 -0.674309 0.41313 -0.612071
-11.1179 62.585 388.42 -0.723784 0.357563 -0.590158
-10.9897 62.5981 388.294 -0.702766 0.344257 -0.622581
-10.8609 62.614 388.171 -0.682511 0.380289 -0.624147
-10.7261 62.6435 388.054 -0.630772 0.400728 -0.664488
-10.5957 62.6411 387.93 -0.673541 0.349776 -0.651152
-10.4805 62.6496 387.791 -0.738287 0.314036 -0.596921
-10.3623 62.6577 387.655 -0.645443 0.348943 -0.679443
-10.2073 62.6732 387.558 -0.561674 0.388439 -0.730505
-10.0364 62.718 387.481 -0.472264 0.449528 -0.758216
-9.86614 62.7347 387.4 -0.514936 0.418543 -0.748106
-9.70737 62.7614 387.308 -0.610715 0.414943 -0.674426
-9.56279 62.776 387.2 -0.568201 0.510857 -0.645115
-9.40728 62.7979 387.104 -0.451038 0.58243 -0.676269
-9.2478 62.8212 387.012 -0.436354 0.551369 -0.711047
-9.06986 62.8506 386.941 -0.572137 0.528433 -0.62723
-8.98884 62.8479 386.765 -0.581019 0.523452 -0.62323
-8.84706 62.8656 386.654 -0.56831 0.461124 -0.68146
-8.71745 62.8789 386.531 -0.551111 0.431885 -0.713969
-8.53986 62.9082 386.458 -0.479592 0.410623 -0.775487
-8.36108 62.9376 386.387 -0.42396 0.463334 -0.77819
-8.17654 62.9748 386.322 -0.428344 0.533253 -0.729495
-8.0182 62.992 386.228 -0.395911 0.564384 -0.724379
-7.80019 63.0326 386.198 -0.285658 0.55088 -0.784175
-7.65619 63.0498 386.088 -0.319098 0.455502 -0.83108
-7.43314 63.0995 386.066 -0.477636 0.502288 -0.720813
-7.28479 63.1122 385.959 -0.338275 0.596906 -0.727511
-7.07731 63.1411 385.918 -0.338758 0.584653 -0.737173
-6.93433 63.1731 385.808 -0.41758 0.551613 -0.722046
-6.72955 63.2106 385.764 -0.3114 0.508996 -0.802467
-6.54825 63.2313 385.692 -0.296745 0.417269 -0.85897
-6.34198 63.2658 385.649 -0.239607 0.50152 -0.831304
-6.10632 63.3281 385.638 -0.191812 0.589561 -0.784619
-5.84466 63.3782 385.652 -0.209351 0.530696 -0.8213
-5.65554 63.4193 385.59 -0.280619 0.478196 -0.832215
-5.46449 63.4688 385.53 -0.223664 0.419823 -0.879615
-5.2521 63.4893 385.492 -0.197608 0.42914 -0.881357
-5.0057 63.5371 385.488 -0.213074 0.472055 -0.855432
-4.79323 63.5666 385.451 -0.208366 0.518481 -0.829314
-4.52484 63.6677 385.471 -0.0802312 0.613259 -0.785796
-4.23056 63.7145 385.517 -0.0713935 0.615407 -0.784969
-4.05397 63.7378 385.443 -0.268354 0.624326 -0.733624
-3.80116 63.8048 385.443 -0.0805105 0.604865 -0.792248
-3.47876 63.8495 385.523 -0.00209703 0.523769 -0.851858
-3.14592 63.9191 385.607 -0.148441 0.632111 -0.760526
-2.96358 63.9777 385.535 -0.115152 0.648906 -0.752104
-2.73242 64.0061 385.516 -0.121366 0.52166 -0.844477
-2.5034 64.0645 385.492 -0.0873549 0.500614 -0.861252
2.13984 65.2168 386.884 0.133992 0.706667 -0.694744
2.47284 65.2672 386.966 0.0623358 0.731016 -0.679507
-13.0762 62.78 392.147 -0.726408 0.60214 -0.331299
-12.963 62.7875 392.005 -0.706861 0.630485 -0.320682
-12.9182 62.7723 391.786 -0.795204 0.572581 -0.199503
-12.8459 62.7664 391.599 -0.704216 0.620197 -0.345593
-12.7424 62.7708 391.446 -0.612917 0.645756 -0.455337
-12.6795 62.7617 391.248 -0.728782 0.551766 -0.4055
-12.5989 62.7585 391.07 -0.760297 0.46292 -0.45569
-12.5199 62.7567 390.89 -0.847124 0.374695 -0.376809
-12.4096 62.7653 390.745 -0.895163 0.347305 -0.279397
-12.3546 62.7497 390.537 -0.809691 0.466825 -0.355634
-12.2704 62.748 390.365 -0.641467 0.58253 -0.499178
-12.097 62.7759 390.288 -0.701512 0.574253 -0.422036
-12.0131 62.7741 390.116 -0.767714 0.568821 -0.295057
-11.9716 62.7588 389.894 -0.74232 0.607342 -0.283015
-11.9232 62.744 389.681 -0.665335 0.654973 -0.358244
-11.7945 62.7571 389.557 -0.53333 0.698436 -0.477228
-11.6659 62.7703 389.433 -0.550307 0.681178 -0.482865
-11.5446 62.7805 389.299 -0.64989 0.62858 -0.427235
-11.476 62.7736 389.109 -0.682212 0.602179 -0.414689
-11.3705 62.7789 388.959 -0.656895 0.599401 -0.457391
-11.2567 62.7699 388.816 -0.618591 0.619512 -0.48327
-11.1275 62.7831 388.691 -0.635381 0.608884 -0.474923
-11.0375 62.8003 388.528 -0.673909 0.54295 -0.50105
-10.9084 62.8136 388.403 -0.62474 0.511848 -0.589671
-10.7791 62.8268 388.279 -0.632543 0.493794 -0.596705
-10.656 62.8268 388.148 -0.64754 0.497527 -0.577199
-10.5464 62.8419 388.003 -0.64865 0.523157 -0.552774
-10.4174 62.8551 387.879 -0.632016 0.574648 -0.519938
-10.2998 62.8674 387.743 -0.551788 0.583086 -0.596273
-10.1328 62.8931 387.659 -0.483818 0.46799 -0.739531
-9.97867 62.9138 387.562 -0.526779 0.310224 -0.791369
-9.8458 62.9286 387.442 -0.519863 0.393043 -0.758459
-9.68583 62.9525 387.351 -0.481587 0.498195 -0.721024
-9.50842 62.9816 387.279 -0.46595 0.509412 -0.723457
-9.34006 62.9984 387.196 -0.513554 0.499581 -0.697625
-9.2087 63.0218 387.074 -0.488023 0.440139 -0.753732
-9.02971 63.0514 387.004 -0.615228 0.376508 -0.69263
-8.91442 63.0602 386.864 -0.679417 0.430107 -0.594475
-8.76539 63.0801 386.762 -0.572858 0.547746 -0.60976
-8.63582 63.0935 386.638 -0.52643 0.59889 -0.603491
-8.49409 63.1109 386.527 -0.39573 0.576487 -0.714885
-8.29334 63.1407 386.478 -0.329466 0.509261 -0.79505
-8.08939 63.1891 386.434 -0.382831 0.491756 -0.782059
-7.91097 63.215 386.362 -0.404733 0.46549 -0.78709
-7.76432 63.2341 386.256 -0.424778 0.39257 -0.815753
-7.57718 63.2664 386.193 -0.282088 0.539287 -0.793471
-7.31985 63.3218 386.204 -0.31369 0.648765 -0.693327
-7.17496 63.3403 386.096 -0.353582 0.614848 -0.704941
-6.9456 63.3863 386.077 -0.396816 0.57528 -0.715255
-6.8148 63.4 385.953 -0.461235 0.54058 -0.703587
-6.62814 63.4337 385.892 -0.421405 0.616305 -0.665271
-6.4983 63.4889 385.767 -0.220195 0.648503 -0.728669
-6.12792 63.5392 385.896 -0.133503 0.612655 -0.778993
-5.95544 63.5713 385.816 -0.27011 0.618028 -0.738297
-5.79526 63.5876 385.724 -0.285318 0.499257 -0.818129
-5.60447 63.6215 385.663 -0.333438 0.543089 -0.770632
-5.39845 63.6612 385.619 -0.231251 0.643699 -0.729503
-5.14033 63.7135 385.629 -0.179341 0.608536 -0.772994
-4.94039 63.753 385.577 -0.172898 0.572726 -0.801306
-4.67062 63.8122 385.599 -0.0495621 0.555776 -0.829853
-4.332 63.8743 385.693 -0.06324 0.580094 -0.812091
-4.14403 63.9424 385.627 -0.117576 0.562309 -0.818526
-3.83078 63.9733 385.695 -0.215934 0.607676 -0.764266
-3.66623 64.037 385.605 -0.155021 0.60789 -0.778741
-3.40853 64.1079 385.612 0.0878226 0.474263 -0.875992
-3.11071 64.1454 385.662 -0.049422 0.472173 -0.880119
-2.87966 64.1944 385.642 -0.232581 0.525867 -0.81815
-2.65046 64.2402 385.619 -0.145574 0.582507 -0.799683
-2.37049 64.2998 385.649 -0.0457747 0.629606 -0.775565
-13.0433 63.0096 392.473 -0.725769 0.620381 -0.2973
-12.9457 63.0119 392.313 -0.677995 0.635104 -0.370089
-12.8265 63.0215 392.177 -0.744489 0.59297 -0.306793
-12.8134 62.9956 391.923 -0.814907 0.543831 -0.200437
-12.7691 62.9803 391.705 -0.719789 0.591082 -0.36404
-12.6449 62.9915 391.574 -0.742513 0.557812 -0.370837
-12.5944 62.9783 391.363 -0.781707 0.552161 -0.289918
-12.523 62.972 391.174 -0.725861 0.596206 -0.343023
-12.4223 62.9818 391.019 -0.749822 0.569045 -0.337571
-12.3985 62.9513 390.777 -0.794247 0.482682 -0.36904
-12.269 62.9644 390.651 -0.74711 0.476148 -0.463799
-12.1402 62.9794 390.528 -0.65306 0.536391 -0.5346
-12.049 62.9895 390.364 -0.729969 0.453332 -0.511503
-11.9672 62.9748 390.185 -0.838748 0.372706 -0.396979
-11.8467 62.9853 390.051 -0.80876 0.466124 -0.358658
-11.7437 62.9932 389.897 -0.684983 0.591274 -0.425669
-11.6251 63.0011 389.763 -0.608636 0.614769 -0.501619
-11.5205 63.0123 389.612 -0.684004 0.54567 -0.48413
-11.4415 63.0026 389.432 -0.741396 0.514446 -0.430904
-11.3312 63.0093 389.286 -0.743386 0.515391 -0.426321
-11.2386 63.0104 389.123 -0.662033 0.55931 -0.498883
-11.1095 63.0235 388.998 -0.64867 0.582031 -0.490375
-11.0389 63.0173 388.81 -0.721434 0.562608 -0.403739
-10.9531 63.0161 388.639 -0.699041 0.564659 -0.438751
-10.8465 63.0218 388.491 -0.612306 0.581494 -0.535674
-10.7172 63.0305 388.366 -0.620778 0.50296 -0.601387
-10.5857 63.0439 388.244 -0.614672 0.524258 -0.589349
-10.419 63.0803 388.162 -0.545897 0.632167 -0.549874
-10.2667 63.0955 388.062 -0.598988 0.635946 -0.486606
-10.187 63.0924 387.884 -0.660281 0.595865 -0.457137
-10.1208 63.0848 387.692 -0.604265 0.556212 -0.57052
-9.99098 63.0983 387.569 -0.414004 0.566889 -0.712207
-9.72016 63.1583 387.597 -0.373818 0.611813 -0.697098
-9.56545 63.1799 387.5 -0.441182 0.621243 -0.647623
-9.40345 63.2065 387.412 -0.466186 0.568488 -0.677859
-9.27392 63.2198 387.288 -0.582597 0.48667 -0.650948
-9.14476 63.2347 387.164 -0.557045 0.42162 -0.715498
-8.98827 63.2504 387.068 -0.543695 0.437338 -0.716332
-8.83246 63.2868 386.973 -0.510398 0.567785 -0.645844
-8.65067 63.3056 386.904 -0.475712 0.627248 -0.616651
-8.50122 63.3257 386.801 -0.565576 0.562538 -0.603055
-8.36842 63.34 386.681 -0.496779 0.491433 -0.715335
-8.21807 63.3562 386.578 -0.362041 0.493426 -0.790859
-8.03166 63.3925 386.515 -0.415681 0.515788 -0.749114
-7.90097 63.4061 386.392 -0.475693 0.546555 -0.689198
-7.71885 63.437 386.325 -0.236212 0.618767 -0.74922
-7.37412 63.5212 386.427 -0.148536 0.639437 -0.754359
-7.19722 63.5504 386.355 -0.386745 0.607397 -0.6939
-7.0669 63.5638 386.23 -0.441441 0.518773 -0.732123
-6.89816 63.5848 386.147 -0.463108 0.51202 -0.723441
-6.76699 63.6029 386.023 -0.319636 0.588988 -0.742244
-6.46935 63.6466 386.078 -0.293925 0.66095 -0.690473
-6.27023 63.7082 386.026 -0.240785 0.679224 -0.693309
-6.07849 63.7373 385.967 -0.148099 0.545571 -0.824875
-5.8816 63.7787 385.913 -0.465614 0.477148 -0.745341
-5.74809 63.7929 385.793 -0.275822 0.61639 -0.737553
-5.38114 63.8965 385.918 -0.188076 0.650178 -0.736136
-5.1996 63.916 385.847 -0.266046 0.691253 -0.671855
-5.0221 63.9438 385.769 -0.226367 0.697184 -0.680215
-4.78461 63.9927 385.763 -0.173904 0.698471 -0.694187
-4.50674 64.0754 385.792 -0.0527155 0.641061 -0.765678
-4.28554 64.0977 385.761 -0.11397 0.58794 -0.800835
-4.02145 64.1746 385.775 -0.102558 0.590481 -0.800509
-3.76322 64.2135 385.786 -0.172323 0.493341 -0.852596
-3.5913 64.2316 385.703 -0.205404 0.50765 -0.83672
-3.25227 64.32 385.795 -0.00857393 0.598099 -0.801376
-2.98038 64.3835 385.817 -0.086868 0.598709 -0.796242
-2.74249 64.4285 385.804 -0.150991 0.641861 -0.751809
-2.45383 64.4937 385.84 -0.0568331 0.675754 -0.734933
-2.13869 64.5443 385.914 0.0194543 0.639307 -0.768705
-12.8643 63.2581 392.693 -0.696675 0.662109 -0.276145
-12.8126 63.245 392.482 -0.678371 0.658384 -0.326103
-12.7514 63.2351 392.281 -0.787878 0.536586 -0.302199
-12.6701 63.232 392.103 -0.849458 0.491464 -0.192055
-12.6456 63.21 391.862 -0.721449 0.620049 -0.308304
-12.54 63.215 391.711 -0.686045 0.623751 -0.374536
-12.4551 63.2131 391.537 -0.739544 0.591971 -0.320382
-12.3589 63.215 391.376 -0.741057 0.597614 -0.306093
-12.3316 63.194 391.139 -0.791777 0.566883 -0.227449
-12.2828 63.1738 390.924 -0.734239 0.60445 -0.309084
-12.1943 63.1795 390.756 -0.640553 0.61596 -0.458568
-12.0928 63.1834 390.601 -0.71111 0.547091 -0.441605
-12.013 63.1799 390.422 -0.743124 0.502023 -0.442425
-11.8847 63.1821 390.295 -0.733073 0.461351 -0.499759
-11.7975 63.1915 390.126 -0.728933 0.446632 -0.518822
-11.6686 63.2047 390.001 -0.739242 0.469583 -0.482715
-11.6073 63.195 389.802 -0.752309 0.461498 -0.47016
-11.4944 63.201 389.66 -0.764382 0.401315 -0.504644
-11.3818 63.2042 389.517 -0.789398 0.404712 -0.461583
-11.3018 63.2071 389.34 -0.740004 0.472153 -0.479026
-11.1728 63.2203 389.215 -0.650901 0.532065 -0.541512
-11.044 63.2335 389.091 -0.680275 0.525689 -0.510761
-10.9141 63.2622 388.968 -0.763814 0.499662 -0.408566
-10.8411 63.2412 388.782 -0.695814 0.572206 -0.434077
-10.712 63.2543 388.657 -0.66802 0.616613 -0.416579
-10.6785 63.2356 388.429 -0.541621 0.616173 -0.57182
-10.4423 63.2575 388.417 -0.434819 0.574159 -0.693739
-10.3138 63.2836 388.294 -0.554574 0.566096 -0.609904
-10.1845 63.2969 388.169 -0.697966 0.525297 -0.486731
-10.1096 63.3058 387.988 -0.743874 0.534086 -0.401751
-9.96409 63.3245 387.881 -0.551173 0.646823 -0.527094
-9.77641 63.357 387.82 -0.326994 0.687562 -0.648332
-9.60983 63.3826 387.736 -0.363366 0.636699 -0.680132
-9.4768 63.3972 387.616 -0.542571 0.551501 -0.633611
-9.3472 63.4105 387.492 -0.573439 0.552104 -0.605268
-9.21797 63.4238 387.367 -0.624427 0.553478 -0.551138
-9.11061 63.4242 387.219 -0.505902 0.562097 -0.654302
-8.89716 63.4709 387.186 -0.361668 0.546549 -0.755301
-8.67758 63.5142 387.158 -0.416214 0.561468 -0.715205
-8.54787 63.5275 387.034 -0.603366 0.532556 -0.593577
-8.48748 63.5181 386.836 -0.679588 0.480494 -0.554334
-8.35792 63.5315 386.712 -0.479752 0.524256 -0.703558
-8.13109 63.577 386.691 -0.339328 0.566856 -0.750687
-7.93591 63.6121 386.637 -0.368185 0.611501 -0.700362
-7.71947 63.6541 386.605 -0.310584 0.656565 -0.687357
-7.46569 63.7084 386.613 -0.178453 0.666343 -0.723976
-7.30971 63.7244 386.514 -0.265373 0.613755 -0.74356
-7.15408 63.7529 386.42 -0.533204 0.540208 -0.651052
-7.02324 63.7665 386.296 -0.43533 0.603519 -0.668022
-6.78781 63.8147 386.284 -0.324155 0.633051 -0.702972
-6.54967 63.8639 386.274 -0.203889 0.625368 -0.753223
-6.34398 63.9022 386.23 -0.248378 0.577804 -0.777464
-6.21012 63.9184 386.11 -0.42632 0.482897 -0.764893
-6.0257 63.9558 386.043 -0.296676 0.541753 -0.78644
-5.77191 64.0268 386.049 -0.254698 0.585494 -0.769627
-5.49326 64.0571 386.08 -0.197497 0.621121 -0.758422
-5.33912 64.0813 385.981 -0.139689 0.624078 -0.768774
-5.05949 64.1266 386.014 -0.230029 0.638872 -0.734118
-4.83381 64.1942 385.989 -0.200629 0.67006 -0.71468
-4.56165 64.2329 386.01 -0.221344 0.711964 -0.666419
-4.41167 64.2744 385.91 -0.182075 0.693902 -0.69667
-4.08888 64.3318 385.986 -0.125281 0.61762 -0.776434
-3.89613 64.3703 385.925 -0.267559 0.599522 -0.754312
-3.73823 64.4081 385.83 -0.199195 0.577163 -0.791963
-3.39939 64.4927 385.922 -0.0470301 0.623316 -0.780555
-3.11211 64.5514 385.961 -0.0663576 0.656838 -0.751106
-2.87408 64.6216 385.947 -0.0659966 0.638832 -0.76651
-2.51157 64.689 386.064 -0.0661517 0.694007 -0.716923
-2.26646 64.7446 386.057 -0.0760938 0.704664 -0.705449
-12.6835 63.4463 392.377 -0.762657 0.579895 -0.28649
-12.5613 63.4574 392.245 -0.784422 0.535373 -0.313144
-12.5045 63.4457 392.039 -0.76939 0.565981 -0.296149
-12.4173 63.4446 391.868 -0.696795 0.626644 -0.34899
-12.3537 63.4355 391.67 -0.721224 0.608457 -0.331082
-12.2804 63.4297 391.483 -0.778771 0.542723 -0.314591
-12.1903 63.4296 391.315 -0.817736 0.519534 -0.247776
-12.1409 63.4159 391.103 -0.726951 0.633449 -0.26511
-12.0723 63.4086 390.911 -0.667929 0.652895 -0.357211
-11.9672 63.4136 390.76 -0.727648 0.574163 -0.375321
-11.9044 63.4044 390.562 -0.753909 0.541132 -0.372555
-11.843 63.3948 390.363 -0.711031 0.534473 -0.456919
-11.714 63.4079 390.238 -0.668461 0.533251 -0.518463
-11.5947 63.4177 390.103 -0.723539 0.513276 -0.461561
-11.4981 63.4197 389.942 -0.778911 0.491111 -0.390011
-11.4286 63.4129 389.753 -0.706495 0.523684 -0.476045
-11.305 63.4241 389.622 -0.679405 0.552301 -0.483086
-11.1823 63.4351 389.49 -0.627899 0.616761 -0.474709
-11.0529 63.4483 389.366 -0.593181 0.646954 -0.479152
-10.9616 63.4489 389.201 -0.649358 0.594712 -0.473975
-10.8583 63.4532 389.047 -0.68455 0.544389 -0.484801
-10.7297 63.4662 388.922 -0.653287 0.549756 -0.520562
-10.6005 63.4794 388.798 -0.722016 0.565769 -0.398244
-10.5256 63.4745 388.615 -0.562935 0.674957 -0.477009
-10.3959 63.4877 388.491 -0.420719 0.661434 -0.620887
-10.2425 63.509 388.393 -0.576243 0.564083 -0.591401
-10.1071 63.5242 388.275 -0.682476 0.499629 -0.533477
-9.97789 63.5375 388.151 -0.655987 0.523402 -0.543813
-9.83999 63.5536 388.035 -0.487945 0.566826 -0.66379
-9.68692 63.5782 387.937 -0.46711 0.51103 -0.721565
-9.54303 63.5928 387.828 -0.551043 0.445173 -0.705814
-9.39343 63.6127 387.726 -0.563554 0.470636 -0.678902
-9.22455 63.6395 387.644 -0.575455 0.527398 -0.625062
-9.0949 63.6528 387.52 -0.628924 0.538612 -0.56067
-8.96441 63.6662 387.397 -0.5051 0.589195 -0.630653
-8.8153 63.6852 387.293 -0.346183 0.558315 -0.753951
-8.64376 63.7134 387.214 -0.484636 0.404156 -0.775748
-8.5123 63.7275 387.092 -0.709508 0.360953 -0.605237
-8.35469 63.75 386.998 -0.621404 0.54098 -0.566743
-8.19524 63.7734 386.905 -0.38442 0.634741 -0.670317
-8.00401 63.8071 386.847 -0.275673 0.650101 -0.708077
-7.79985 63.8451 386.802 -0.281883 0.630532 -0.723167
-7.61025 63.8654 386.74 -0.232781 0.546717 -0.804309
-7.4101 63.9151 386.692 -0.282993 0.41165 -0.86629
-7.20641 63.9595 386.646 -0.415874 0.450737 -0.789864
-7.02241 63.9844 386.579 -0.418206 0.619828 -0.664016
-6.81599 64.0231 386.536 -0.355518 0.667432 -0.654326
-6.65544 64.0468 386.444 -0.292381 0.635959 -0.714191
-6.48497 64.0737 386.36 -0.301429 0.641469 -0.705448
-6.30631 64.1036 386.29 -0.390729 0.676537 -0.624202
-6.14235 64.1198 386.2 -0.300814 0.65633 -0.691912
-5.85145 64.1784 386.246 -0.237716 0.679223 -0.694368
-5.67269 64.2368 386.173 -0.190109 0.653619 -0.732558
-5.43293 64.2739 386.163 -0.133317 0.549474 -0.824806
-5.15308 64.3377 386.196 -0.13808 0.602001 -0.786466
-4.89598 64.3979 386.205 -0.17061 0.638927 -0.75011
-4.70743 64.4249 386.141 -0.132259 0.621083 -0.772505
-4.38391 64.5099 386.22 -0.217009 0.634193 -0.742096
-4.21989 64.5355 386.129 -0.263174 0.652376 -0.710736
-4.02698 64.5609 386.07 -0.196042 0.681293 -0.705271
-3.83573 64.5944 386.009 -0.245042 0.679763 -0.691286
