13.3498 38.35 369.337 0.758018 -0.182711 -0.626119
13.476 38.3418 369.458 0.800079 -0.112118 -0.589324
13.5766 38.3504 369.622 0.867212 -0.0893101 -0.489864
13.6607 38.3424 369.812 0.907286 -0.0558091 -0.416793
13.7414 38.3445 370.01 0.893642 -0.129322 -0.429743
13.8498 38.3392 370.161 0.908232 -0.19356 -0.371011
13.9113 38.3465 370.391 0.896081 -0.171991 -0.409217
14.0252 38.342 370.533 0.899324 -0.192741 -0.392515
14.0907 38.3475 370.758 0.920084 -0.253124 -0.298955
14.1783 38.3485 370.944 0.902974 -0.304139 -0.30354
14.2169 38.3597 371.216 0.924326 -0.314206 -0.216555
14.273 38.3644 371.457 0.92644 -0.24603 -0.284917
14.3627 38.3677 371.641 0.95335 -0.138155 -0.268395
14.4278 38.3735 371.868 0.962879 -0.204266 -0.176464
14.4523 38.3877 372.165 0.958461 -0.245119 -0.14584
14.514 38.3942 372.398 0.935292 -0.318369 -0.154499
14.5486 38.4063 372.678 0.963331 -0.248119 -0.102129
14.6011 38.413 372.927 0.974082 -0.226172 0.00315377
14.5613 38.4425 373.337 0.944182 -0.3292 -0.0121656
14.5813 38.4577 373.644 0.9743 -0.223875 0.024901
14.5557 38.4826 374.03 0.973818 -0.227324 -0.00125591
14.6102 38.4875 374.277 0.961608 -0.272882 0.0290858
14.5363 38.5257 374.749 0.97018 -0.24037 0.0311948
14.5678 38.5391 375.038 0.989708 -0.133069 0.0526349
14.5125 38.57 375.478 0.978872 -0.182538 0.0921358
14.5177 38.5949 375.814 0.955584 -0.294541 0.0102266
14.5112 38.6096 376.17 0.973193 -0.22911 0.0200962
14.5196 38.6277 376.501 0.973874 -0.195861 0.114926
14.4183 38.6687 377.024 0.98261 -0.147643 0.112602
14.4138 38.6785 377.378 0.991798 -0.121832 0.0386396
14.3954 38.7096 377.759 0.987872 -0.10542 0.114001
14.3181 38.7494 378.243 0.990434 -0.0762538 0.115003
14.3071 38.777 378.612 0.993364 -0.0581047 0.0992559
14.2267 38.8104 379.102 0.993103 -0.015952 0.116153
14.1936 38.8356 379.51 0.994539 0.0135654 0.103477
14.145 38.8718 379.947 0.994258 0.00464513 0.106907
14.0781 38.9002 380.416 0.997751 0.02586 0.0618402
14.0826 38.9158 380.76 0.998218 0.0483808 0.0349386
14.0557 38.9453 381.161 0.992481 0.116462 0.0376503
14.0161 38.9743 381.584 0.983847 0.174377 0.0404691
14.0211 38.9932 381.929 0.98882 0.146226 0.0291983
14.0105 39.0158 382.303 0.966579 0.255818 -0.0168062
14.0366 39.083 383.678 0.816167 0.572866 -0.0754652
14.0183 39.1164 384.072 0.804357 0.592669 -0.0418739
14.009 39.1406 384.447 0.808583 0.588181 -0.0153557
14.0288 39.143 384.765 0.757828 0.649112 -0.0659495
14.0434 39.173 385.104 0.695602 0.717218 -0.0416731
13.9625 39.2109 385.608 0.667004 0.744419 -0.0307508
14.0029 39.2231 385.897 0.698215 0.713889 -0.0534574
13.7075 39.389 388.586 0.521454 0.844275 -0.123632
13.748 39.4238 388.898 0.592876 0.803529 -0.0532807
13.8258 39.4283 389.124 0.666617 0.743209 -0.0571178
13.8918 39.4354 389.371 0.677466 0.706958 -0.203102
13.9923 39.4332 389.555 0.681952 0.687295 -0.250133
14.0418 39.4458 389.834 0.664381 0.693255 -0.279277
14.1812 39.4373 389.949 0.635892 0.68231 -0.360686
14.283 39.4367 390.133 0.776311 0.57296 -0.262789
14.3266 39.4381 390.416 0.832077 0.520521 -0.191587
14.3814 39.459 390.697 0.816618 0.518922 -0.252696
14.4771 39.4587 390.882 0.6899 0.537827 -0.48454
14.5866 39.4573 391.058 0.619345 0.6555 -0.432123
14.6473 39.4658 391.318 0.623264 0.71645 -0.313433
14.7851 39.4576 391.437 0.676331 0.708685 -0.200854
14.8331 39.4549 391.712 0.719294 0.6676 -0.192161
14.9379 39.4579 391.9 0.769182 0.578394 -0.271696
14.9918 39.456 392.169 0.799387 0.575454 -0.172723
14.9659 39.5126 392.605 0.763556 0.63696 -0.106132
15.0407 39.51 392.826 0.774189 0.60487 -0.18645
15.1082 39.5027 393.071 0.820147 0.55635 -0.133544
15.1096 39.5149 393.437 0.795428 0.587971 -0.146915
15.1607 39.55 393.734 0.75026 0.637505 -0.175203
15.2748 39.5539 393.904 0.862189 0.501312 -0.0729138
15.2536 39.5563 394.303 0.879983 0.468374 -0.0790884
15.2709 39.5801 394.652 0.832337 0.548265 -0.0813752
15.2923 39.5822 394.978 0.821859 0.565136 -0.0718981
15.2895 39.6289 395.379 0.828273 0.560092 -0.0161566
15.2998 39.6466 395.74 0.856682 0.515715 0.0115503
12.6501 40.3805 403.366 0.107792 -0.800367 -0.58974
12.8182 40.3671 403.44 0.209981 -0.663505 -0.718101
12.9822 40.3482 403.518 -0.0268053 -0.668629 -0.743112
13.2024 40.3291 403.5 -0.104393 -0.630115 -0.769452
13.3973 40.316 403.53 0.137346 -0.602586 -0.786146
13.5868 40.2915 403.556 0.186323 -0.608867 -0.77108
13.7461 40.2792 403.65 0.321507 -0.540378 -0.777576
13.8917 40.2699 403.766 0.475808 -0.387532 -0.789573
14.0507 40.2577 403.86 0.40107 -0.387669 -0.829973
14.2054 40.239 403.951 0.305189 -0.468033 -0.82934
14.4094 40.2264 403.965 0.309124 -0.590039 -0.745852
14.5675 40.2143 404.058 0.467515 -0.66422 -0.583302
14.6854 40.2126 404.232 0.446955 -0.696404 -0.561474
14.8419 40.2006 404.325 0.214548 -0.717652 -0.66253
15.0283 40.1832 404.362 0.15724 -0.685234 -0.711147
15.196 40.1699 404.441 0.302335 -0.623632 -0.720886
15.3453 40.159 404.548 0.362031 -0.56026 -0.745012
15.5153 40.1516 404.629 0.250177 -0.542142 -0.80218
15.702 40.1398 404.665 0.150858 -0.489736 -0.858721
15.8851 40.1159 404.71 0.236566 -0.40827 -0.881676
16.0333 40.1039 404.814 0.53574 -0.308644 -0.785953
16.1936 40.0988 404.909 0.603715 -0.362864 -0.70983
16.3348 40.0865 405.038 0.533418 -0.401384 -0.744551
16.4908 40.0705 405.13 0.496695 -0.387341 -0.776699
16.632 40.0585 405.249 0.528074 -0.413118 -0.741937
16.7712 40.0555 405.386 0.573135 -0.406989 -0.71125
16.9163 40.0468 405.505 0.575204 -0.33589 -0.745867
17.0623 40.0406 405.625 0.61148 -0.263637 -0.746048
17.2081 40.0316 405.737 0.583159 -0.279837 -0.762638
17.3587 40.0197 405.854 0.623691 -0.221525 -0.749624
17.493 40.0133 405.987 0.623001 -0.169265 -0.763688
17.6497 40.0022 406.085 0.628453 -0.137054 -0.765678
17.7764 39.9978 406.24 0.698477 -0.10023 -0.708579
17.9188 39.9898 406.364 0.739969 -0.123181 -0.661266
18.0322 39.9902 406.544 0.85647 -0.0895537 -0.50837
18.1596 39.9828 406.695 0.882424 -0.0881417 -0.462125
18.2523 39.9859 406.92 0.830293 -0.143182 -0.538621
18.3598 39.9868 407.114 0.785036 -0.0923946 -0.612521
18.5064 39.9847 407.245 0.800582 -0.0961985 -0.591452
18.6014 39.9785 407.441 0.835966 -0.164345 -0.523594
18.7176 39.9769 407.624 0.797662 -0.194348 -0.570933
18.8487 39.9704 407.773 0.838343 -0.0822392 -0.538904
18.9554 39.9767 407.971 0.87189 -0.033793 -0.488534
19.081 39.9694 408.128 0.826608 -0.157084 -0.54041
19.1807 39.9711 408.339 0.868126 -0.123194 -0.480812
19.2691 39.9766 408.573 0.857922 0.0152293 -0.513555
19.4039 39.9686 408.711 0.817528 0.0270931 -0.575251
19.5128 39.982 408.909 0.901434 0.000140912 -0.432916
19.5958 39.9747 409.15 0.931954 0.0345615 -0.360927
19.6862 39.9735 409.378 0.936446 0.00164888 -0.350809
19.7698 39.9789 409.621 0.87797 -0.0329617 -0.47758
19.908 39.9856 409.77 0.866096 0.0852249 -0.492558
19.9969 39.9815 409.99 0.964503 0.0644812 -0.256078
20.0566 40.003 410.285 0.95742 -0.0891862 -0.274578
20.1456 40.0004 410.524 0.808942 -0.0350675 -0.586842
2.75202 39.5236 366.126 -0.224401 0.142037 -0.96409
2.97912 39.4957 366.087 -0.188604 0.231767 -0.954313
3.22184 39.4648 366.022 -0.121521 0.292634 -0.948471
3.42612 39.4416 366.018 -0.101025 0.293643 -0.950562
3.68365 39.4076 365.929 -0.186581 0.204809 -0.960854
3.91493 39.3789 365.882 -0.109746 0.220751 -0.969136
4.12544 39.3544 365.867 -0.0909804 0.198294 -0.975911
4.34949 39.3271 365.831 -0.080346 0.124206 -0.988998
4.55313 39.304 365.826 -0.0433861 0.0862481 -0.995329
4.76539 39.2826 365.808 -0.0650713 0.0776817 -0.994852
4.97498 39.2548 365.795 -0.0159561 0.11473 -0.993269
5.17535 39.2351 365.796 0.032889 0.106445 -0.993775
5.37099 39.2108 365.803 0.0260622 0.0660076 -0.997479
5.56981 39.1885 365.806 -0.0467658 0.070274 -0.996431
5.78643 39.1591 365.78 -0.0415598 0.109407 -0.993128
5.98708 39.1426 365.779 0.0151309 0.0964647 -0.995221
6.18501 39.1182 365.782 0.0394662 0.135844 -0.989944
6.37327 39.0951 365.802 0.0510311 0.200624 -0.978338
6.57789 39.0747 365.794 0.139387 0.216995 -0.96617
6.75219 39.0528 365.834 0.21828 0.141651 -0.965551
6.92967 39.0347 365.871 0.208483 0.0680915 -0.975653
7.10689 39.0175 365.907 0.183155 0.0335006 -0.982513
7.29295 38.9969 365.927 0.100521 -0.0101853 -0.994883
7.48194 38.9848 365.946 0.135797 0.0974599 -0.985931
7.65617 38.9648 365.987 0.26911 0.168184 -0.948311
7.81947 38.9498 366.045 0.29398 0.11972 -0.948284
7.99441 38.9332 366.084 0.259827 0.0798433 -0.962349
8.1663 38.9156 366.127 0.260378 0.0481026 -0.964308
8.34866 38.9005 366.157 0.224294 0.0184862 -0.974346
8.52341 38.8805 366.195 0.244202 -0.0197999 -0.969522
8.68171 38.8626 366.262 0.262453 0.00890046 -0.964904
8.85776 38.8479 366.298 0.19929 0.0585657 -0.978189
9.04159 38.8274 366.323 0.287309 0.0250986 -0.957509
9.19432 38.8162 366.397 0.399467 -0.00793191 -0.916713
9.35436 38.8027 366.461 0.360123 0.0112972 -0.932836
9.5213 38.7883 366.512 0.320508 -0.00272029 -0.947242
9.69019 38.7736 366.561 0.271518 -0.0773762 -0.959318
9.86792 38.7517 366.593 0.257508 -0.148659 -0.954772
10.0186 38.7395 366.673 0.335064 -0.0780789 -0.938955
10.178 38.7259 366.736 0.452476 -0.00616521 -0.891756
10.3214 38.7145 366.827 0.480844 -0.0266267 -0.876402
10.4735 38.7019 366.902 0.425579 -0.0408656 -0.903998
10.6342 38.6895 366.964 0.420128 -0.0530213 -0.905915
10.7878 38.6754 367.037 0.453212 -0.0599244 -0.889386
10.9339 38.6642 367.123 0.494854 -0.0635775 -0.866647
11.0794 38.6531 367.209 0.508623 -0.0549954 -0.859231
11.2253 38.6419 367.295 0.504997 -0.0457878 -0.861906
11.3713 38.6307 367.381 0.549399 -0.0485812 -0.834147
11.505 38.6225 367.489 0.544035 -0.028787 -0.838568
11.6536 38.6113 367.569 0.501575 -0.00742924 -0.865082
11.806 38.5953 367.645 0.556849 -0.0300151 -0.830071
11.9513 38.5842 367.731 0.67555 -0.110763 -0.728947
12.0498 38.5854 367.896 0.659407 -0.0744454 -0.748091
12.1909 38.5742 367.99 0.54603 0.0118337 -0.837682
12.3341 38.5616 368.081 0.566047 -0.00215466 -0.82437
12.4699 38.5505 368.184 0.621772 0.0170536 -0.783013
12.606 38.5449 368.286 0.624571 0.0174236 -0.780774
12.737 38.5349 368.398 0.756155 0.0499043 -0.652487
12.8354 38.5334 368.564 0.817379 0.04371 -0.57444
12.9619 38.5258 368.683 0.774967 -0.0791887 -0.627022
13.0641 38.5206 368.842 0.815147 -0.0947832 -0.571447
13.1668 38.5215 369.002 0.833565 -0.0521638 -0.549953
13.288 38.5117 369.13 0.842714 -0.159983 -0.514042
13.3694 38.5175 369.326 0.787325 -0.246446 -0.56514
13.4854 38.5086 369.463 0.815243 -0.110131 -0.56855
13.5691 38.509 369.654 0.887312 -0.0380486 -0.459597
13.6702 38.5124 369.818 0.879883 -0.0567783 -0.471786
13.7799 38.502 369.965 0.868507 -0.107937 -0.483783
13.865 38.5113 370.157 0.917107 -0.175982 -0.357694
13.9262 38.5139 370.388 0.889484 -0.15349 -0.430417
14.0452 38.5111 370.521 0.880903 -0.122988 -0.457038
14.1164 38.5155 370.736 0.930115 -0.11627 -0.348378
14.2004 38.5173 370.929 0.926512 -0.162286 -0.339468
14.2956 38.5167 371.103 0.952189 -0.253214 -0.170933
14.297 38.5386 371.439 0.912306 -0.354592 -0.204846
14.3729 38.5394 371.646 0.903097 -0.293609 -0.313385
14.4381 38.5451 371.873 0.960494 -0.182517 -0.21009
14.503 38.5509 372.1 0.944191 -0.267047 -0.192846
14.5638 38.5576 372.335 0.958274 -0.258018 -0.123038
14.5584 38.5764 372.683 0.983124 -0.143373 -0.113629
14.6115 38.5867 372.932 0.995496 -0.06853 -0.0655135
14.6287 38.6026 373.243 0.989485 -0.142318 0.0257782
14.6062 38.622 373.623 0.980044 -0.19725 0.0246378
14.6145 38.6448 373.951 0.977511 -0.208109 -0.0340904
14.635 38.6632 374.258 0.986404 -0.159629 0.0390691
14.5921 38.6889 374.675 0.987589 -0.138571 0.0739319
14.5782 38.7116 375.043 0.980294 -0.195844 0.025847
14.5946 38.7279 375.358 0.964376 -0.258236 0.0573846
14.5673 38.7535 375.75 0.955215 -0.292937 0.041863
14.5581 38.7651 376.11 0.977109 -0.211535 0.0225894
14.5481 38.7972 376.475 0.983945 -0.124077 0.128282
14.4389 38.8402 377.012 0.985169 -0.117931 0.124637
14.4493 38.8633 377.341 0.994062 -0.100316 0.0421713
14.4091 38.8915 377.759 0.992063 -0.0374155 0.120046
14.3372 38.9217 378.233 0.991588 -0.0474335 0.120428
14.2913 38.9441 378.661 0.993187 -0.0186661 0.115028
14.2276 38.9833 379.123 0.991963 0.0179145 0.12525
14.1737 39.0167 379.569 0.994822 0.020612 0.0995166
14.1357 39.0354 379.985 0.993609 0.0100878 0.112425
14.0881 39.0865 380.423 0.996769 0.032189 0.0735881
14.0771 39.098 380.794 0.990563 0.12152 0.0633809
13.9973 39.1353 381.287 0.9882 0.139196 0.0639115
14.0231 39.1498 381.595 0.994165 0.103943 0.0288262
13.9783 39.1802 382.029 0.98941 0.126651 0.0709082
13.8939 39.2267 382.536 0.962216 0.269629 0.0379516
13.7002 39.4254 385.74 0.692561 0.72136 -0.000250983
13.7199 39.4423 386.067 0.675323 0.730503 -0.101509
13.5548 39.6247 388.905 0.702939 0.702568 -0.110788
13.561 39.6452 389.264 0.679187 0.711419 -0.18052
13.6586 39.6446 389.446 0.609611 0.740291 -0.28345
13.7819 39.64 389.594 0.651657 0.709456 -0.268357
13.8324 39.651 389.873 0.712299 0.645763 -0.274991
13.9567 39.647 390.011 0.668842 0.644241 -0.370951
14.0504 39.6466 390.211 0.575022 0.704316 -0.416279
14.1857 39.639 390.334 0.710198 0.656999 -0.252926
14.2173 39.6536 390.646 0.781176 0.587827 -0.210294
14.3384 39.6595 390.801 0.759368 0.571359 -0.311303
14.4054 39.6564 391.043 0.780908 0.528294 -0.333299
14.4849 39.6644 391.271 0.757737 0.580707 -0.297679
14.5621 39.685 391.51 0.736533 0.626536 -0.254897
14.584 39.6827 391.83 0.707514 0.652175 -0.272197
14.7163 39.6759 391.96 0.681767 0.638086 -0.357827
14.8407 39.6919 392.118 0.79229 0.570897 -0.215298
14.8182 39.6973 392.518 0.823839 0.560779 -0.0825585
14.889 39.7039 392.762 0.777779 0.594188 -0.204941
14.9966 39.731 392.957 0.812341 0.545176 -0.207086
14.9945 39.7297 393.322 0.870554 0.479071 -0.112371
15.0787 39.7231 393.529 0.890635 0.436553 -0.127243
15.0987 39.7393 393.87 0.803529 0.539511 -0.251534
15.1936 39.7646 394.087 0.813613 0.573114 -0.0978455
15.1303 39.7831 394.568 0.813152 0.581572 -0.0236167
15.1876 39.8084 394.851 0.802916 0.59295 -0.0611157
15.1461 39.8238 395.294 0.839656 0.541978 -0.0351824
15.1741 39.8399 395.621 0.83865 0.543864 -0.02962
15.1243 39.866 396.087 0.831406 0.554164 0.0408144
12.6794 40.5618 403.337 0.455562 -0.672965 -0.582737
12.865 40.5497 403.384 0.106467 -0.677111 -0.728139
13.0857 40.5189 403.355 -0.0101554 -0.629587 -0.776863
13.2793 40.4996 403.382 0.0351102 -0.552205 -0.832968
13.4654 40.4813 403.423 0.170077 -0.497186 -0.850812
13.6253 40.4692 403.51 0.314623 -0.559656 -0.766679
13.779 40.4592 403.615 0.461841 -0.58594 -0.665865
13.9165 40.4521 403.747 0.401546 -0.596294 -0.695122
14.1011 40.44 403.797 0.254609 -0.574752 -0.777711
14.2879 40.4168 403.829 0.139892 -0.548432 -0.82441
14.4774 40.3984 403.863 0.227225 -0.532294 -0.815495
14.6353 40.3863 403.956 0.49611 -0.512786 -0.700661
14.7982 40.375 404.045 0.444424 -0.626124 -0.640669
14.9546 40.363 404.138 0.260071 -0.702447 -0.662519
15.1109 40.3511 404.23 0.287728 -0.662535 -0.691563
15.2601 40.3423 404.345 0.393095 -0.607548 -0.690189
15.4186 40.3302 404.439 0.357289 -0.591926 -0.722474
15.5861 40.3175 404.511 0.283723 -0.565414 -0.774473
15.7464 40.3054 404.602 0.271819 -0.454844 -0.848075
15.9128 40.2932 404.681 0.393317 -0.327649 -0.859039
16.0696 40.2815 404.774 0.483285 -0.315686 -0.816564
16.2303 40.2681 404.869 0.571849 -0.344335 -0.744595
16.3554 40.2578 405.021 0.563622 -0.319646 -0.76168
16.5191 40.2457 405.105 0.492537 -0.289002 -0.820905
16.676 40.2385 405.198 0.549142 -0.350671 -0.758599
16.8375 40.2354 405.294 0.637317 -0.375535 -0.672904
16.943 40.2262 405.481 0.633932 -0.321403 -0.703442
17.1013 40.2161 405.576 0.597407 -0.268152 -0.755777
17.2329 40.2102 405.719 0.639072 -0.237146 -0.731675
17.3694 40.2002 405.851 0.667296 -0.190399 -0.720044
17.5045 40.1968 405.993 0.656416 -0.101742 -0.747507
17.6432 40.186 406.119 0.668969 -0.0306086 -0.74266
17.785 40.1823 406.25 0.691553 -0.00294317 -0.72232
17.9284 40.1729 406.371 0.770898 0.0214148 -0.636598
18.0393 40.168 406.563 0.864248 -0.0556639 -0.499977
18.1292 40.1788 406.789 0.861543 0.0163073 -0.507423
18.2627 40.1713 406.926 0.851638 0.0747466 -0.518773
18.3787 40.1758 407.107 0.785042 -0.0643657 -0.616089
18.5168 40.1639 407.25 0.760869 -0.0631079 -0.645829
18.6475 40.1647 407.387 0.825436 -0.138251 -0.547304
18.7635 40.1561 407.564 0.834895 -0.257545 -0.486438
18.8409 40.1661 407.819 0.858471 -0.10849 -0.501256
18.9657 40.159 407.978 0.811344 0.000106516 -0.584569
19.0916 40.1535 408.135 0.850498 -0.0449147 -0.524057
19.1934 40.1675 408.346 0.920888 -0.0226695 -0.389168
19.2795 40.1611 408.579 0.85719 -0.0818241 -0.508458
19.416 40.159 408.718 0.806865 -0.102283 -0.581814
19.5225 40.1551 408.915 0.914641 -0.0496178 -0.401209
19.6072 40.163 409.157 0.924035 -0.013672 -0.382062
19.7193 40.1644 409.343 0.925056 -0.0419973 -0.377503
19.8025 40.1699 409.586 0.914806 0.0268786 -0.402999
19.8826 40.1759 409.84 0.854577 0.187363 -0.484349
20.0094 40.1837 409.998 0.921687 0.133652 -0.364184
2.74853 39.6984 366.152 -0.123661 0.348769 -0.929014
2.96615 39.6725 366.128 -0.135364 0.299752 -0.944365
3.19179 39.6449 366.09 -0.132531 0.231698 -0.963718
3.42151 39.6164 366.046 -0.183637 0.178683 -0.966618
3.66177 39.5859 365.984 -0.187089 0.164179 -0.968526
3.86455 39.5629 365.982 -0.126998 0.231005 -0.964628
4.1163 39.53 365.902 -0.135233 0.279072 -0.9507
4.33664 39.5034 365.872 -0.0818155 0.313931 -0.945914
4.56238 39.4751 365.833 -0.0170074 0.331994 -0.943128
4.75721 39.4504 365.843 -0.00570367 0.295467 -0.955336
4.96649 39.4299 365.829 -0.000942757 0.282789 -0.959182
5.16998 39.3983 365.824 0.0134765 0.231508 -0.97274
5.38029 39.3815 365.809 0.0307377 0.115057 -0.992883
5.56683 39.3625 365.831 -0.0052713 0.136207 -0.990666
5.77745 39.3379 365.815 -0.0340523 0.237809 -0.970715
5.98445 39.3107 365.804 0.0675486 0.253091 -0.965081
6.1595 39.2962 365.844 0.109802 0.241906 -0.964067
6.35825 39.2743 365.846 0.0709094 0.272598 -0.959512
6.54579 39.2544 365.866 0.0771101 0.287952 -0.954535
6.75578 39.2286 365.85 0.157521 0.265719 -0.951094
6.93133 39.214 365.888 0.183944 0.213113 -0.959556
7.12368 39.1976 365.901 0.150702 0.156006 -0.976192
7.30241 39.1731 365.933 0.221114 0.16252 -0.961611
7.45661 39.152 366.009 0.211793 0.192127 -0.958244
7.65128 39.1387 366.015 0.223428 0.167402 -0.960238
7.82169 39.1222 366.062 0.256245 0.137578 -0.956771
8.00225 39.1034 366.092 0.230851 0.0885599 -0.968951
8.17215 39.0887 366.139 0.23189 0.0552398 -0.971172
8.34493 39.0619 366.182 0.197951 0.132683 -0.97119
8.52801 39.05 366.209 0.28051 0.127593 -0.951333
8.68931 39.0368 366.269 0.310359 0.0716299 -0.947917
8.85775 39.0251 366.319 0.181669 0.132065 -0.974451
9.04967 38.9996 366.33 0.277329 0.141565 -0.950288
9.20246 38.9856 366.406 0.419221 0.0638015 -0.905639
9.35829 38.9681 366.475 0.346512 0.0370197 -0.937315
9.5242 38.9502 366.528 0.250152 0.0469335 -0.967068
9.70761 38.9363 366.551 0.213284 0.0430748 -0.97604
9.87748 38.9196 366.598 0.350467 0.0699595 -0.933958
10.0281 38.9102 366.679 0.420637 0.0646759 -0.904921
10.1881 38.896 366.74 0.439385 0.0399926 -0.897408
10.3374 38.8817 366.822 0.467276 0.00774872 -0.884078
10.4925 38.8678 366.891 0.413737 -0.0487281 -0.909092
10.6436 38.8566 366.969 0.419351 -0.0237666 -0.907513
10.7969 38.8409 367.043 0.458194 0.00508082 -0.888838
10.9481 38.8297 367.121 0.507069 -0.0124199 -0.861816
11.089 38.8185 367.215 0.519252 -0.0143309 -0.854501
11.2348 38.8109 367.301 0.509481 0.0213782 -0.860217
11.3804 38.7997 367.387 0.570225 0.0374707 -0.820634
11.5146 38.7906 367.494 0.561903 0.0178988 -0.827009
11.6594 38.7753 367.58 0.486483 0.0197852 -0.873466
11.8058 38.764 367.666 0.499643 0.0526575 -0.864629
11.9505 38.7529 367.754 0.709037 0.0531217 -0.703168
12.0546 38.7543 367.909 0.718137 -0.0479423 -0.694248
12.198 38.7432 368 0.526516 -0.103406 -0.843853
12.3436 38.7332 368.087 0.582132 -0.0616306 -0.810755
12.4703 38.7249 368.205 0.621328 -0.00649566 -0.783523
12.6066 38.7139 368.307 0.660299 0.0948378 -0.74499
12.7206 38.712 368.447 0.753006 0.147391 -0.641295
12.8436 38.7055 368.572 0.740969 0.0902902 -0.665442
12.9715 38.6969 368.688 0.770931 0.0255949 -0.636404
13.0738 38.6947 368.848 0.841562 -0.000473096 -0.540161
13.1762 38.6872 369.008 0.77548 -0.0126419 -0.631245
13.3062 38.6846 369.121 0.810428 0.00602124 -0.585807
13.4079 38.681 369.282 0.874806 -0.0833255 -0.477254
13.4874 38.6864 369.482 0.855677 -0.0850479 -0.510475
13.6045 38.6853 369.618 0.876192 -0.0829376 -0.474772
13.6799 38.6807 369.824 0.849336 -0.133808 -0.510612
13.7902 38.6797 369.971 0.836796 -0.0633874 -0.543833
13.8991 38.6763 370.121 0.932859 -0.0967984 -0.346992
13.9498 38.6878 370.371 0.896361 -0.178889 -0.405631
14.0615 38.6788 370.515 0.882146 -0.137237 -0.450539
14.1263 38.6868 370.741 0.916496 -0.113043 -0.383739
14.235 38.6803 370.892 0.887423 -0.157015 -0.43339
14.3056 38.6834 371.108 0.965671 -0.0656251 -0.25134
14.3809 38.6904 371.316 0.971333 -0.170746 -0.165404
14.4095 38.7053 371.606 0.909928 -0.341813 -0.234937
14.4881 38.7083 371.809 0.921678 -0.283771 -0.264545
14.5444 38.7161 372.051 0.950839 -0.237042 -0.19929
14.5767 38.7245 372.334 0.983462 -0.170088 -0.0622258
14.5779 38.7595 372.674 0.978544 -0.194906 -0.0668047
14.6205 38.759 372.939 0.979878 -0.164289 -0.11335
14.6408 38.7697 373.244 0.995751 -0.091948 -0.00500267
14.6402 38.7992 373.588 0.978891 -0.202818 0.0252633
14.6352 38.8151 373.938 0.972292 -0.233427 -0.0126361
14.6447 38.8328 374.264 0.990772 -0.128078 0.0443426
14.6016 38.8471 374.679 0.987282 -0.151308 0.0487847
14.6375 38.874 374.962 0.946225 -0.323415 -0.00780743
14.6337 38.8948 375.313 0.961723 -0.270582 0.0432817
14.608 38.9202 375.702 0.983918 -0.162866 0.0733426
14.5686 38.9485 376.116 0.994896 -0.0876366 0.050011
14.5578 38.969 376.48 0.992454 0.00474093 0.122522
14.4689 39.0016 376.981 0.987112 -0.0904033 0.132051
14.4338 39.0319 377.39 0.993376 -0.0881296 0.0737445
14.3949 39.0606 377.806 0.993595 0.00650182 0.112816
14.3461 39.0806 378.238 0.990186 -0.0475582 0.131412
14.2821 39.1317 378.702 0.990099 -0.0434064 0.133489
14.2201 39.1643 379.16 0.991942 -0.0065744 0.126524
14.1707 39.1989 379.598 0.995177 0.00650474 0.0978811
14.1456 39.22 379.992 0.991532 0.0549528 0.117665
14.0441 39.2466 380.521 0.98768 0.114765 0.106382
14.0105 39.2896 380.934 0.981666 0.177714 0.0689244
14.0032 39.3118 381.301 0.9604 0.276872 0.0312109
13.9854 39.3361 381.686 0.916962 0.398164 0.0254164
13.9366 39.3657 382.126 0.904064 0.417029 0.0935678
13.5697 39.6326 385.999 0.690381 0.717052 -0.0959689
13.6998 39.6278 386.125 0.703936 0.645353 -0.296637
13.2014 39.8393 388.835 0.672807 0.656207 -0.341647
13.3529 39.8278 388.928 0.66074 0.66443 -0.34922
13.3692 39.8406 389.262 0.735213 0.654268 -0.177189
13.4883 39.8493 389.42 0.723538 0.647144 -0.240205
13.5542 39.8488 389.663 0.693562 0.615784 -0.373875
13.6701 39.8425 389.82 0.684916 0.603959 -0.407582
13.8045 39.8358 389.945 0.760631 0.533419 -0.370007
13.8717 39.845 390.192 0.752599 0.560691 -0.345282
13.9523 39.8492 390.414 0.632477 0.673082 -0.38332
14.0733 39.8434 390.562 0.708883 0.633643 -0.309808
14.1447 39.8401 390.797 0.778356 0.554551 -0.294339
14.2441 39.8511 390.992 0.752458 0.541871 -0.374411
14.3405 39.852 391.186 0.811835 0.523215 -0.259173
14.3924 39.8578 391.459 0.791176 0.567163 -0.228836
14.4409 39.877 391.747 0.772913 0.588052 -0.238328
14.5703 39.8677 391.88 0.789273 0.46337 -0.40291
14.6831 39.8632 392.045 0.808424 0.415113 -0.417291
14.7077 39.8817 392.373 0.840525 0.526513 -0.127679
14.7363 39.8973 392.694 0.833655 0.538403 -0.123055
14.8137 39.8956 392.921 0.791447 0.552119 -0.262253
14.8483 39.917 393.236 0.792089 0.576358 -0.201014
14.9473 39.9196 393.43 0.817311 0.557068 -0.147233
14.9568 39.9374 393.786 0.8271 0.550629 -0.112756
14.9871 39.9399 394.097 0.77915 0.61362 -0.128042
14.9868 39.977 394.484 0.817239 0.575008 -0.0385463
14.9667 39.9859 394.885 0.795546 0.604578 -0.0399008
15.003 40.0209 395.21 0.74676 0.659582 -0.0854454
15.0311 40.0365 395.536 0.825578 0.563709 -0.0255563
15.0129 40.0653 395.95 0.829955 0.556966 0.0310308
12.6426 40.7335 403.039 0.777664 -0.382439 -0.498978
12.8373 40.7145 403.077 0.413262 -0.667165 -0.619762
12.993 40.7037 403.163 0.0952003 -0.758682 -0.644467
13.1611 40.6901 403.242 0.074087 -0.73861 -0.67005
13.3214 40.678 403.33 0.107525 -0.658947 -0.744464
13.5212 40.6567 403.345 0.0974377 -0.603558 -0.791343
13.7261 40.6353 403.35 0.251643 -0.656637 -0.710988
13.8843 40.6232 403.443 0.377969 -0.714308 -0.588985
14.04 40.6131 403.549 0.312613 -0.771022 -0.554796
14.1824 40.6044 403.662 0.171253 -0.776905 -0.605881
14.3538 40.5891 403.734 0.131983 -0.692434 -0.709306
14.5258 40.5748 403.799 0.251936 -0.606753 -0.753909
14.6864 40.5589 403.884 0.357138 -0.489065 -0.795781
14.8629 40.546 403.948 0.388993 -0.43047 -0.814481
15.0169 40.5342 404.04 0.415967 -0.492342 -0.764572
15.1776 40.5242 404.135 0.449506 -0.476745 -0.75542
15.3346 40.513 404.23 0.456599 -0.493717 -0.740109
15.4867 40.5027 404.335 0.420135 -0.491786 -0.762648
15.6397 40.493 404.441 0.434991 -0.469892 -0.768104
15.7854 40.4835 404.553 0.415471 -0.421662 -0.805968
15.9557 40.4694 404.627 0.393135 -0.394538 -0.830532
16.1159 40.4578 404.715 0.434077 -0.411669 -0.801315
16.2735 40.4458 404.809 0.574961 -0.410476 -0.707764
16.4055 40.4494 404.952 0.556629 -0.427986 -0.712033
16.5642 40.4373 405.046 0.401206 -0.429628 -0.808983
16.7269 40.4163 405.122 0.50298 -0.416963 -0.757069
16.8498 40.404 405.283 0.688719 -0.333149 -0.643954
16.9888 40.4013 405.421 0.673966 -0.32892 -0.6615
17.1229 40.4016 405.56 0.614651 -0.310363 -0.725175
17.2698 40.3897 405.676 0.681476 -0.192278 -0.70613
17.4011 40.3844 405.821 0.730203 -0.153511 -0.665761
17.5247 40.387 405.984 0.697594 -0.176424 -0.694433
17.67 40.3797 406.103 0.678461 -0.161453 -0.716675
17.7957 40.3721 406.256 0.710301 -0.0602543 -0.701314
17.9255 40.3625 406.403 0.728693 0.0226186 -0.684467
18.0811 40.3624 406.517 0.887523 -0.077108 -0.454266
18.1398 40.3649 406.795 0.868547 -0.17956 -0.461935
18.2751 40.3595 406.933 0.770698 -0.104378 -0.628594
18.397 40.3544 407.099 0.786957 -0.0525213 -0.614768
18.5247 40.3431 407.255 0.716053 -0.0663171 -0.694888
18.6662 40.3411 407.379 0.75673 -0.0708465 -0.649878
18.789 40.3292 407.541 0.916535 -0.0288638 -0.398912
18.8513 40.3483 407.825 0.900248 -0.0650284 -0.430494
18.9861 40.3422 407.966 0.781884 -0.1164 -0.612461
19.099 40.3411 408.15 0.86531 -0.0389339 -0.499722
19.1998 40.3421 408.362 0.900303 -0.01023 -0.435143
19.3118 40.3307 408.539 0.841993 -0.122031 -0.525506
19.4317 40.3392 408.716 0.833697 -0.142997 -0.533387
19.5325 40.337 408.922 0.921985 0.104163 -0.372953
19.6064 40.3451 409.184 0.906422 0.14202 -0.397781
19.7201 40.3435 409.371 0.947047 0.0135262 -0.320811
19.7487 40.3355 409.706 0.946828 0.108098 -0.303037
19.8789 40.3563 409.878 0.842969 0.176056 -0.508338
19.9878 40.353 410.059 0.853568 0.258648 -0.452242
2.69058 39.8844 366.265 -0.134909 0.473808 -0.870233
2.93913 39.8521 366.191 -0.175259 0.36075 -0.916048
3.20045 39.8172 366.097 -0.166617 0.251123 -0.953507
3.41287 39.7922 366.08 -0.190959 0.198098 -0.961401
3.67019 39.7581 365.991 -0.132079 0.209527 -0.968841
3.86872 39.735 365.997 -0.084065 0.227338 -0.970181
4.08426 39.7103 365.974 -0.10506 0.322377 -0.940763
4.28746 39.6871 365.971 -0.0580926 0.412124 -0.909274
4.50772 39.6605 365.94 -0.0448851 0.380814 -0.923562
4.7252 39.6344 365.914 -0.0153424 0.319604 -0.947427
4.93624 39.6097 365.898 -0.0465369 0.287568 -0.956629
5.16122 39.5811 365.859 -0.0711793 0.286876 -0.95532
5.38676 39.5541 365.82 0.07044 0.31989 -0.944832
5.54562 39.5405 365.884 0.108959 0.286656 -0.951817
5.7514 39.5165 365.877 -0.0228187 0.27537 -0.961067
5.96059 39.4921 365.863 0.0629625 0.333843 -0.940523
6.15645 39.4725 365.869 0.143295 0.255213 -0.956208
6.32925 39.4563 365.913 0.0822636 0.229825 -0.969749
6.54291 39.4282 365.892 0.0480027 0.249658 -0.967143
6.7227 39.4097 365.924 0.105002 0.270444 -0.956992
6.91781 39.3895 365.931 0.129833 0.243175 -0.961254
7.10205 39.3626 365.956 0.161921 0.231626 -0.959235
7.27988 39.3509 365.992 0.253474 0.237886 -0.937636
7.46488 39.3317 366.015 0.182506 0.112529 -0.976744
7.65211 39.32 366.035 0.186589 0.0730137 -0.979721
7.81428 39.2967 366.095 0.206187 0.122993 -0.970752
8.01073 39.2747 366.099 0.204906 0.152207 -0.966875
8.17482 39.2583 366.157 0.312025 0.155192 -0.937313
8.33562 39.2412 366.22 0.196461 0.151864 -0.96868
8.53264 39.2229 366.222 0.232778 0.215748 -0.948297
8.68814 39.2112 366.292 0.36828 0.1999 -0.90797
8.84533 39.1916 366.361 0.192368 0.148585 -0.970009
9.04396 39.1751 366.36 0.210933 0.15249 -0.965533
9.20878 39.1591 366.416 0.392731 0.127688 -0.910746
9.36877 39.1469 366.48 0.353927 0.105798 -0.92927
9.53373 39.1291 366.534 0.248576 0.105209 -0.962882
9.70627 39.1172 366.576 0.253589 0.169062 -0.952424
9.86842 39.097 366.636 0.355401 0.229142 -0.906192
10.0355 39.0803 366.687 0.403193 0.223266 -0.887461
10.1864 39.066 366.765 0.415907 0.170177 -0.893343
10.349 39.0539 366.823 0.41725 0.114128 -0.901597
10.5034 39.0408 366.895 0.44357 0.0677538 -0.893675
10.6531 39.029 366.975 0.451053 0.0360126 -0.89177
10.8062 39.0147 367.049 0.448764 0.0449872 -0.892517
10.9577 39.0009 367.127 0.510372 0.0728622 -0.856862
11.0985 38.9897 367.221 0.551368 0.118992 -0.825732
11.2364 38.9813 367.318 0.527864 0.157338 -0.834628
11.3825 38.9701 367.405 0.553794 0.128465 -0.822684
11.524 38.9589 367.5 0.559757 0.0654141 -0.826071
11.6666 38.9507 367.59 0.516579 0.0466138 -0.85497
11.8123 38.9395 367.676 0.515983 0.0407554 -0.855629
11.9574 38.9317 367.765 0.63668 0.0228462 -0.770789
12.0928 38.9204 367.867 0.670492 -0.0719769 -0.738417
12.2213 38.9124 367.983 0.561462 -0.12649 -0.817778
12.3614 38.9013 368.078 0.628954 -0.0446802 -0.776158
12.4796 38.8976 368.211 0.70072 0.0139869 -0.713299
12.5956 38.8907 368.347 0.709442 0.0652898 -0.701733
12.7221 38.8818 368.466 0.716431 0.0610605 -0.69498
12.8479 38.8753 368.586 0.699741 0.0260341 -0.713923
12.9699 38.8701 368.713 0.759042 0.0658078 -0.647708
13.0834 38.871 368.854 0.830718 0.0333269 -0.555695
13.1825 38.8641 369.019 0.787147 -0.0182651 -0.616496
13.2986 38.8619 369.156 0.758712 0.0348657 -0.650492
13.4176 38.8535 369.288 0.877926 0.00882726 -0.478716
13.4969 38.8562 369.487 0.861004 -0.0309904 -0.507653
13.6163 38.8482 369.618 0.854948 -0.0370473 -0.51739
13.7034 38.861 369.807 0.887062 -0.0262408 -0.460903
13.7999 38.8508 369.977 0.822759 -0.0110752 -0.568283
13.9089 38.8473 370.126 0.914262 -0.0146711 -0.404858
13.98 38.8469 370.34 0.923483 -0.0664391 -0.377844
14.0713 38.8522 370.521 0.897784 -0.0759773 -0.433833
14.1606 38.8529 370.705 0.904938 -0.0844599 -0.417078
14.2448 38.8548 370.897 0.928937 -0.0412356 -0.367934
14.2993 38.8629 371.141 0.941041 0.0521356 -0.33425
14.3961 38.8632 371.313 0.959391 -0.00490549 -0.282038
14.4598 38.8683 371.542 0.969579 -0.12848 -0.208348
14.505 38.8785 371.802 0.957222 -0.145004 -0.250398
14.572 38.884 372.026 0.979545 -0.0975535 -0.175999
14.6054 38.9006 372.308 0.990356 -0.114121 -0.0785541
14.6424 38.9072 372.584 0.983796 -0.173706 -0.0443981
14.6306 38.9311 372.944 0.974208 -0.215737 -0.0661558
14.673 38.9465 373.213 0.977691 -0.200016 -0.0641441
14.7061 38.9547 373.496 0.977397 -0.21083 0.0157021
14.673 38.9816 373.895 0.983286 -0.179023 0.0331674
14.667 39.0029 374.248 0.992776 -0.11577 0.0315036
14.6704 39.0368 374.587 0.986255 -0.162964 -0.0272827
14.7249 39.0292 374.833 0.969013 -0.246657 0.0131953
14.6439 39.0667 375.318 0.983034 -0.1634 0.083338
14.6379 39.0864 375.673 0.989024 -0.105829 0.10311
14.5496 39.1281 376.172 0.993265 -0.0643713 0.0963422
14.5374 39.1553 376.54 0.995972 0.0390621 0.0807043
14.5169 39.1835 376.923 0.991982 -0.00255412 0.12635
14.4347 39.2194 377.413 0.993654 -0.0295611 0.108528
14.4049 39.2409 377.812 0.995346 -0.0225472 0.0936916
14.3693 39.2781 378.224 0.990544 -0.0381423 0.13179
14.2835 39.3047 378.722 0.989779 0.0124427 0.142066
14.2259 39.3383 379.173 0.991559 0.0242366 0.127369
14.1587 39.3694 379.641 0.992641 0.0216417 0.119143
14.0857 39.41 380.121 0.982531 0.131093 0.132087
14.0207 39.4444 380.587 0.974708 0.193374 0.112027
13.9858 39.4726 381.002 0.979192 0.176118 0.100827
13.8528 39.5217 381.59 0.944101 0.317994 0.086907
13.4731 39.8334 386.189 0.513096 0.801293 -0.307671
13.5553 39.8218 386.402 0.733442 0.676722 -0.0641173
13.0586 40.0298 388.753 0.675575 0.707949 -0.205928
13.1785 40.0246 388.898 0.684018 0.642936 -0.344604
13.2268 40.036 389.179 0.763477 0.595743 -0.249387
13.3074 40.0324 389.396 0.766614 0.594513 -0.242603
13.3754 40.0475 389.645 0.727089 0.572362 -0.379135
13.5136 40.0386 389.76 0.717579 0.546966 -0.43117
13.6208 40.0374 389.935 0.695238 0.517274 -0.499072
13.7272 40.0361 390.11 0.77768 0.538197 -0.324898
13.7676 40.0496 390.41 0.795126 0.554676 -0.245171
13.8592 40.0503 390.602 0.675793 0.613314 -0.40884
13.9919 40.0559 390.743 0.685581 0.611444 -0.395113
14.0915 40.0485 390.925 0.77009 0.531626 -0.352612
14.1956 40.0368 391.101 0.789421 0.509068 -0.343023
14.2503 40.0533 391.375 0.841514 0.49946 -0.205897
14.29 40.0486 391.663 0.823589 0.521197 -0.223728
14.4006 40.0646 391.843 0.674384 0.604543 -0.42395
14.54 40.0563 391.961 0.684498 0.605436 -0.406091
14.5843 40.0686 392.252 0.805036 0.570867 -0.161333
14.5936 40.0918 392.609 0.805424 0.580333 -0.120439
14.6719 40.0937 392.837 0.809171 0.558939 -0.18119
14.709 40.1064 393.142 0.827196 0.522032 -0.207916
14.8028 40.1095 393.345 0.835293 0.517134 -0.186703
14.8003 40.1322 393.724 0.805115 0.580315 -0.122572
14.8466 40.1443 394.014 0.79309 0.605634 -0.0649299
14.8327 40.1641 394.412 0.777149 0.622582 -0.0918247
14.9034 40.2049 394.683 0.860885 0.508593 -0.0144917
14.8306 40.1962 395.159 0.879747 0.474968 -0.0212379
14.8893 40.2242 395.443 0.795116 0.59153 -0.133726
14.9092 40.2402 395.783 0.816283 0.57754 0.0114027
12.7315 40.9018 402.904 0.286579 -0.843766 -0.453797
12.8915 40.8895 402.998 0.122463 -0.825777 -0.55054
13.0787 40.8718 403.026 0.111499 -0.773493 -0.623921
13.2856 40.8493 403.041 0.196962 -0.775108 -0.600345
13.4265 40.8416 403.153 0.15652 -0.726509 -0.669093
13.6312 40.8195 403.172 0.0624991 -0.611231 -0.78898
13.7912 40.8064 403.254 0.211494 -0.520981 -0.826952
13.9772 40.7898 403.295 0.342182 -0.550249 -0.761668
14.1341 40.7777 403.387 0.341186 -0.665828 -0.663525
14.3137 40.7629 403.449 0.33164 -0.730445 -0.597047
14.4354 40.7577 403.599 0.26229 -0.727587 -0.633894
14.6295 40.7404 403.645 0.356406 -0.690748 -0.62916
14.7162 40.7461 403.847 0.364168 -0.629953 -0.68596
14.9173 40.723 403.876 0.286155 -0.557878 -0.77903
15.0647 40.714 403.982 0.442336 -0.471549 -0.762877
15.2235 40.7018 404.076 0.452651 -0.411727 -0.790941
15.3784 40.691 404.176 0.491059 -0.385822 -0.781026
15.5278 40.6801 404.282 0.481065 -0.371328 -0.794161
15.6951 40.6668 404.363 0.489629 -0.448525 -0.747723
15.8336 40.659 404.484 0.406742 -0.527004 -0.746209
16.0101 40.6451 404.552 0.343431 -0.516789 -0.784209
16.1657 40.634 404.646 0.419516 -0.471023 -0.775979
16.3236 40.6219 404.74 0.561694 -0.403019 -0.722548
16.4608 40.6159 404.877 0.567347 -0.385629 -0.727604
16.6174 40.6039 404.97 0.425084 -0.414221 -0.804813
16.7699 40.5919 405.07 0.593259 -0.358541 -0.720757
16.8987 40.5886 405.224 0.703291 -0.28386 -0.651771
17.0394 40.5882 405.355 0.701181 -0.282069 -0.654815
17.1567 40.578 405.521 0.701036 -0.296683 -0.648481
17.2824 40.5722 405.678 0.691229 -0.284449 -0.664298
17.413 40.5695 405.825 0.699777 -0.252309 -0.66832
17.5629 40.5597 405.936 0.687394 -0.276933 -0.671415
17.6826 40.5569 406.104 0.728335 -0.254619 -0.636158
17.804 40.546 406.261 0.7495 -0.1951 -0.632602
17.9367 40.5478 406.413 0.663075 -0.0937114 -0.742664
18.0947 40.5369 406.517 0.844085 -0.025588 -0.535599
18.1789 40.5365 406.751 0.901612 -0.106376 -0.419261
18.288 40.5415 406.935 0.80118 -0.100994 -0.589839
18.4072 40.5338 407.105 0.775927 -0.0396256 -0.629577
18.5452 40.5374 407.242 0.71688 -0.0453774 -0.695718
18.6809 40.5341 407.388 0.797974 0.0465056 -0.600895
18.7706 40.5225 407.597 0.893369 0.165716 -0.417649
18.8867 40.5281 407.784 0.881286 0.0487865 -0.470058
18.9964 40.5252 407.972 0.831475 -0.034014 -0.554521
19.1071 40.5272 408.162 0.878278 0.0539794 -0.475094
19.2103 40.5308 408.369 0.855313 0.0697051 -0.513401
19.3406 40.5231 408.516 0.837656 0.0473554 -0.544141
19.4417 40.5247 408.723 0.925157 0.136164 -0.354323
19.4756 40.5447 409.069 0.898913 0.277329 -0.339181
19.617 40.5338 409.192 0.856205 0.18787 -0.481267
19.7274 40.5627 409.402 0.960567 0.0898512 -0.263132
19.7659 40.5502 409.717 0.953876 0.0661658 -0.292817
19.88 40.5489 409.901 0.897897 0.0489298 -0.437479
2.64827 40.0673 366.352 -0.269359 0.265985 -0.92558
2.91952 40.0303 366.242 -0.278251 0.247948 -0.927954
3.16335 39.9988 366.176 -0.193741 0.304595 -0.93257
3.404 39.968 366.114 -0.171243 0.287752 -0.942271
3.63043 39.9401 366.075 -0.105612 0.308891 -0.945215
3.84015 39.9156 366.062 0.0228156 0.320471 -0.946984
4.02945 39.8962 366.081 -0.0258138 0.309688 -0.950488
4.2609 39.8663 366.034 -0.104108 0.336342 -0.935968
4.49808 39.8362 365.976 -0.118955 0.29612 -0.947714
4.71944 39.8093 365.944 -0.0495073 0.268177 -0.962097
4.91734 39.789 365.948 -0.0543482 0.221346 -0.97368
5.13053 39.7619 365.929 -0.0602907 0.275403 -0.959437
5.32216 39.742 365.943 0.0425795 0.382658 -0.922909
5.54752 39.7133 365.903 0.110371 0.304845 -0.945985
5.72033 39.6963 365.948 0.0162269 0.207118 -0.978181
5.93856 39.67 365.919 -0.0225923 0.272318 -0.961942
6.14429 39.6462 365.91 0.125704 0.306255 -0.943613
6.32445 39.6249 365.943 0.105821 0.264665 -0.958517
6.52065 39.6059 365.948 0.0649678 0.256785 -0.964282
6.71262 39.585 365.961 0.0723124 0.209699 -0.975088
6.92064 39.5595 365.948 0.116441 0.22563 -0.967229
7.08767 39.5449 366 0.168302 0.266063 -0.94915
7.28763 39.528 365.998 0.132422 0.220871 -0.966272
7.47131 39.5023 366.026 0.15675 0.229871 -0.960515
7.65255 39.483 366.054 0.244098 0.22387 -0.943556
7.81732 39.4701 366.111 0.235111 0.158429 -0.95897
7.99338 39.4512 366.151 0.211389 0.193257 -0.958106
8.16535 39.4347 366.19 0.309141 0.238332 -0.920668
8.33699 39.4174 366.237 0.264651 0.203478 -0.942633
8.49462 39.4047 366.305 0.220719 0.248683 -0.943101
8.68778 39.3841 366.314 0.31507 0.29951 -0.900569
8.84764 39.3684 366.378 0.200024 0.231036 -0.952162
9.04667 39.3446 366.377 0.197017 0.209119 -0.957838
9.20006 39.3265 366.452 0.373193 0.21498 -0.902503
9.36402 39.3153 366.508 0.352555 0.190827 -0.916128
9.52273 39.3 366.572 0.316497 0.187801 -0.929818
9.68922 39.2847 366.626 0.317811 0.203505 -0.926057
9.85209 39.2734 366.685 0.351328 0.206239 -0.913255
10.0098 39.2599 366.75 0.352767 0.217363 -0.910114
10.1836 39.2419 366.791 0.364206 0.252407 -0.896462
10.3405 39.2286 366.858 0.375888 0.267078 -0.887343
10.5047 39.2153 366.916 0.414451 0.250816 -0.874827
10.6587 39.2033 366.987 0.460757 0.163125 -0.872407
10.8053 39.1921 367.072 0.479232 0.135585 -0.867152
10.9516 39.1809 367.158 0.55261 0.181378 -0.813464
11.0787 39.1673 367.274 0.577865 0.207365 -0.789349
11.225 39.1561 367.36 0.502466 0.183205 -0.844964
11.3812 39.1445 367.429 0.499439 0.110678 -0.85925
11.527 39.1334 367.515 0.541345 0.062751 -0.838456
11.6677 39.1222 367.609 0.512023 0.0590977 -0.856937
11.8205 39.1102 367.684 0.509599 0.0739776 -0.857226
11.9618 39.099 367.779 0.5611 0.088108 -0.823045
12.1021 39.0888 367.872 0.628781 0.0810226 -0.773349
12.2306 39.0784 367.989 0.642446 0.0478606 -0.764835
12.3612 39.0708 368.101 0.680664 0.0521471 -0.730738
12.4801 39.0658 368.232 0.736581 0.0698969 -0.672728
12.6053 39.0655 368.354 0.7083 0.0397301 -0.704793
12.7318 39.0578 368.472 0.691384 0.0460023 -0.721022
12.8558 39.0475 368.595 0.733337 0.0266188 -0.679344
12.9651 39.0452 368.743 0.745606 0.0244238 -0.665939
13.0945 39.0361 368.857 0.800237 0.00915945 -0.599613
13.1921 39.0395 369.025 0.815102 -0.03467 -0.578279
13.3081 39.0301 369.162 0.75198 -0.0234542 -0.658769
13.4276 39.0316 369.294 0.858576 0.0227669 -0.51218
13.5064 39.0256 369.493 0.856722 0.023643 -0.515237
13.626 39.0215 369.625 0.864623 0.0112671 -0.502295
13.6925 39.0131 369.844 0.891539 -0.00436143 -0.452923
13.8089 39.0157 369.983 0.827791 -0.00180411 -0.561034
13.9087 39.0206 370.148 0.895391 0.0215552 -0.444759
13.99 39.0231 370.346 0.921033 -0.0160863 -0.389153
14.0764 39.0286 370.535 0.896601 -0.0239932 -0.442189
14.1701 39.0235 370.711 0.923184 0.00211207 -0.384352
14.2304 39.0313 370.944 0.952006 0.0665364 -0.298761
14.3058 39.035 371.152 0.925908 0.0561775 -0.373549
14.4005 39.0336 371.328 0.926026 -0.0029999 -0.377448
14.4693 39.0382 371.547 0.973737 0.0394478 -0.224231
14.5145 39.0464 371.808 0.974221 -0.0193519 -0.224762
14.5817 39.0546 372.032 0.977535 -0.0917747 -0.189746
14.6149 39.0687 372.314 0.990606 -0.0609418 -0.122415
14.6524 39.0806 372.589 0.997102 -0.0178916 -0.0739382
14.6807 39.0906 372.88 0.994254 -0.0849116 -0.0651843
14.7091 39.1085 373.172 0.98223 -0.16706 -0.085529
14.7175 39.1232 373.498 0.994949 -0.0973296 0.0245673
14.6827 39.1534 373.901 0.996712 -0.0585974 0.055966
14.678 39.1752 374.251 0.998365 -0.0565398 0.00836084
14.6795 39.1951 374.592 0.994124 -0.0553705 -0.0930176
14.7348 39.2034 374.839 0.999343 -0.00419121 0.0359908
14.6591 39.2414 375.315 0.994802 -0.0258218 0.0984968
14.6609 39.2624 375.656 0.990546 -0.0719394 0.116807
14.5594 39.3048 376.178 0.990031 -0.0425442 0.134269
14.5258 39.3245 376.582 0.997154 -0.03269 0.0679409
14.4882 39.3486 376.994 0.993558 0.0102236 0.11286
14.4279 39.3872 377.447 0.993888 0.0259251 0.107308
14.4094 39.414 377.827 0.995956 0.0281229 0.0853308
14.351 39.4422 378.277 0.988715 0.0269696 0.147364
14.2471 39.4908 378.809 0.989114 0.0331379 0.143373
14.2173 39.5178 379.212 0.97335 0.201067 0.110279
14.1399 39.555 379.698 0.968185 0.20489 0.143659
14.0316 39.5989 380.24 0.978007 0.145757 0.149187
13.953 39.6365 380.73 0.954731 0.282803 0.0922532
13.9216 39.664 381.138 0.910694 0.393041 0.127104
13.3092 40.049 386.511 0.33547 0.931485 -0.140695
13.2716 40.0783 386.94 0.659357 0.746336 0.0907249
12.818 40.1976 388.114 0.734799 0.657932 0.164909
12.8041 40.2223 388.503 0.733443 0.675527 0.0756634
12.8181 40.2409 388.842 0.720821 0.675287 -0.156219
12.9149 40.2416 389.034 0.599141 0.711445 -0.367255
13.0551 40.2328 389.147 0.656678 0.682651 -0.320566
13.1227 40.2399 389.391 0.718579 0.654432 -0.235293
13.2182 40.2396 389.585 0.692599 0.642607 -0.327661
13.3467 40.2348 389.72 0.722396 0.529036 -0.44527
13.4404 40.2363 389.918 0.693145 0.523551 -0.495424
13.564 40.2312 390.062 0.716595 0.5832 -0.382583
13.6174 40.2541 390.334 0.791692 0.552435 -0.260844
13.7139 40.2439 390.528 0.823044 0.494503 -0.279402
13.7974 40.2356 390.739 0.720262 0.542092 -0.43285
13.9144 40.2349 390.9 0.605038 0.661956 -0.442429
14.0312 40.2391 391.059 0.703865 0.616183 -0.353401
14.0971 40.2467 391.309 0.778827 0.566778 -0.268685
14.176 40.2571 391.539 0.816373 0.543836 -0.194365
14.2346 40.2626 391.801 0.822772 0.51454 -0.241444
14.2983 40.2696 392.06 0.680554 0.610658 -0.404898
14.406 40.2671 392.226 0.710546 0.650182 -0.26905
14.4397 40.2771 392.538 0.796552 0.591987 -0.122708
14.4949 40.2953 392.815 0.796851 0.576029 -0.18226
14.566 40.2998 393.059 0.763296 0.606497 -0.222579
14.6556 40.292 393.258 0.767603 0.611211 -0.192891
14.6597 40.3462 393.648 0.809667 0.579131 -0.0951157
14.6677 40.3441 393.993 0.794716 0.604106 -0.0590139
14.6681 40.3805 394.379 0.789779 0.609357 -0.070227
14.7104 40.3709 394.66 0.774136 0.617467 -0.139457
14.7701 40.4113 394.949 0.809132 0.586282 -0.0397344
14.7428 40.4096 395.356 0.835005 0.550235 -0.00295496
12.5933 41.0493 402.018 0.971791 -0.173765 0.159458
12.6264 41.0669 402.361 0.774873 -0.618545 -0.130281
13.216 41.0289 402.803 0.120585 -0.810006 -0.573889
13.3696 41.0173 402.903 0.287805 -0.7491 -0.596672
13.5034 41.0116 403.042 0.300697 -0.722898 -0.622093
13.6626 40.9993 403.136 0.188188 -0.685624 -0.703211
13.8401 40.9838 403.19 0.172825 -0.612502 -0.771345
14.0274 40.9658 403.222 0.173257 -0.564821 -0.806821
14.2219 40.9468 403.257 0.278514 -0.5433 -0.791995
14.3778 40.9349 403.349 0.441768 -0.506508 -0.740467
14.5343 40.9229 403.442 0.432452 -0.512963 -0.741522
14.6864 40.9099 403.549 0.535914 -0.493046 -0.685348
14.8298 40.9012 403.669 0.494463 -0.533455 -0.686245
14.9884 40.8944 403.77 0.404309 -0.537352 -0.740127
15.1142 40.8892 403.911 0.521015 -0.418219 -0.744068
15.2741 40.877 404.006 0.473467 -0.432472 -0.767331
15.4201 40.8688 404.124 0.486836 -0.443003 -0.752821
15.5775 40.8568 404.217 0.376313 -0.461427 -0.803414
15.7549 40.8414 404.271 0.390257 -0.487448 -0.781085
15.9136 40.8292 404.365 0.416014 -0.520049 -0.745976
16.0684 40.8178 404.464 0.401748 -0.510148 -0.760491
16.2196 40.8068 404.572 0.501817 -0.43691 -0.746518
16.357 40.8016 404.704 0.591626 -0.35114 -0.725727
16.5003 40.7934 404.825 0.5536 -0.326491 -0.766114
16.6588 40.7812 404.919 0.50661 -0.324294 -0.798862
16.7994 40.7719 405.038 0.673261 -0.268726 -0.688844
16.9223 40.7741 405.208 0.712521 -0.247433 -0.656575
17.0626 40.7659 405.337 0.710328 -0.183719 -0.679471
17.195 40.7548 405.474 0.733253 -0.174978 -0.657056
17.3401 40.7537 405.603 0.710753 -0.288893 -0.641383
17.4606 40.7428 405.758 0.664566 -0.334027 -0.668414
17.5983 40.7305 405.894 0.706713 -0.254431 -0.660167
17.7224 40.736 406.057 0.776464 -0.18225 -0.603231
17.8484 40.7246 406.209 0.811036 -0.115133 -0.573554
17.9454 40.7335 406.424 0.724668 -0.0237167 -0.68869
18.1021 40.7225 406.522 0.80877 0.0506265 -0.585942
18.1898 40.728 406.757 0.906706 0.0227672 -0.421149
18.2965 40.7201 406.944 0.833431 -0.0261251 -0.552006
18.4259 40.7283 407.104 0.772226 0.0298499 -0.634646
18.5501 40.7176 407.257 0.786672 0.0399554 -0.616077
18.658 40.7295 407.463 0.867392 0.160993 -0.470864
18.7538 40.7173 407.667 0.83024 0.241551 -0.50235
18.8967 40.7094 407.791 0.838037 0.114662 -0.533429
18.9836 40.7242 408.018 0.873221 0.0663278 -0.482789
19.1052 40.7146 408.19 0.876963 0.119517 -0.465459
19.1956 40.7209 408.426 0.833399 0.173682 -0.524671
19.3291 40.7111 408.561 0.874416 0.200682 -0.441729
19.3745 40.7331 408.887 0.941994 0.22149 -0.252169
19.476 40.7302 409.092 0.878832 0.171434 -0.445269
19.6129 40.7331 409.233 0.834659 0.136795 -0.533509
19.6867 40.7318 409.493 0.927025 0.243415 -0.285261
19.7718 40.735 409.731 0.933296 0.157074 -0.322933
2.89195 40.2102 366.307 -0.242321 0.287998 -0.926465
3.13632 40.1786 366.239 -0.204246 0.331479 -0.921089
3.37946 40.1472 366.174 -0.15264 0.34384 -0.926539
3.6003 40.1203 366.144 -0.101335 0.364806 -0.925553
3.83876 40.0899 366.085 0.0244065 0.374621 -0.926857
4.01693 40.0723 366.122 0.00847587 0.267142 -0.96362
4.23538 40.0454 366.095 -0.159726 0.202761 -0.966114
4.46368 40.017 366.052 -0.15501 0.259814 -0.953136
4.69424 39.9881 366.004 -0.0890486 0.266493 -0.959714
4.91716 39.9589 365.97 0.00328366 0.272582 -0.962127
5.10101 39.9423 365.996 0.0305946 0.249273 -0.96795
5.31366 39.9164 365.977 -0.0565543 0.239661 -0.969208
5.53315 39.8897 365.947 0.0238441 0.305405 -0.951924
5.72385 39.869 365.963 0.0885743 0.261888 -0.961025
5.91586 39.8428 365.978 -0.0139925 0.188548 -0.981964
6.12185 39.8183 365.969 0.0835496 0.269242 -0.959441
6.30237 39.8056 365.998 0.0984612 0.257282 -0.961307
6.50819 39.7811 365.989 0.0189338 0.243726 -0.969659
6.71754 39.7567 365.974 0.0950653 0.308538 -0.94645
6.87688 39.7429 366.039 0.161987 0.318775 -0.933886
