10.0017 21.3367 396.457 0.247368 -0.968884 0.00851409
9.86179 21.32 396.575 0.296523 -0.953891 -0.0465355
9.75838 21.2934 396.719 0.41743 -0.893072 -0.167855
9.76114 21.2384 396.935 0.449198 -0.880923 -0.148984
9.72824 21.193 397.126 0.389144 -0.921108 -0.0112341
9.62394 21.1667 397.269 0.348404 -0.931748 0.102273
9.4709 21.1536 397.379 0.35406 -0.923712 0.146282
9.36663 21.1273 397.521 0.368241 -0.923327 0.108932
9.28427 21.0952 397.679 0.3892 -0.920964 0.0186813
9.24237 21.0523 397.864 0.316115 -0.941097 0.120035
9.07502 21.0384 397.963 0.279411 -0.939333 0.198955
8.9702 21.0131 398.106 0.370945 -0.918078 0.139762
8.86483 20.9908 398.249 0.402894 -0.903923 0.143527
8.7522 20.9668 398.386 0.352881 -0.922188 0.158255
8.57949 20.9589 398.482 0.394529 -0.916288 0.069023
8.54371 20.9143 398.672 0.446928 -0.891575 0.073142
8.43993 20.888 398.815 0.417061 -0.894809 0.159303
8.33743 20.8614 398.958 0.400812 -0.90656 0.13228
8.27189 20.8247 399.128 0.319017 -0.940945 0.11336
8.12912 20.8089 399.244 0.263116 -0.959097 0.10442
7.97374 20.7962 399.353 0.325174 -0.943439 0.0646843
7.86957 20.7699 399.496 0.391735 -0.918211 0.058585
7.76501 20.7437 399.638 0.276692 -0.927381 0.251804
7.569 20.7418 399.72 0.23533 -0.941267 0.242147
7.45113 20.7192 399.854 0.316879 -0.942417 0.106944
7.33685 20.6956 399.99 0.293382 -0.934316 0.202439
7.17358 20.685 400.094 0.232198 -0.933057 0.274752
7.02425 20.6707 400.206 0.19829 -0.944899 0.260473
6.87627 20.656 400.32 0.157631 -0.944516 0.288169
6.65861 20.6596 400.388 0.154132 -0.950775 0.268832
6.53142 20.6392 400.517 0.163786 -0.970674 0.175973
6.34979 20.6338 400.606 0.211506 -0.969014 0.127585
6.21265 20.6159 400.729 0.18004 -0.945698 0.270629
5.99801 20.6187 400.799 0.126757 -0.930308 0.344179
5.82952 20.6093 400.9 0.143397 -0.947962 0.284265
5.61293 20.6125 400.969 0.179185 -0.960951 0.210871
5.44042 20.6041 401.067 0.256594 -0.953574 0.157656
5.29927 20.5875 401.186 0.236569 -0.913259 0.331654
5.10655 20.5843 401.271 0.0904946 -0.850526 0.518088
4.75699 20.6223 401.253 0.143618 -0.872806 0.466459
4.60332 20.615 401.367 0.216309 -0.876053 0.430978
4.40548 20.608 401.447 0.37322 -0.874039 0.311067
4.28327 20.5852 401.579 0.25963 -0.725997 0.636805
4.11313 20.5921 401.689 -0.177003 -0.600836 0.77953
3.63873 20.6545 401.586 -0.0705938 -0.883447 0.463183
3.39733 20.6558 401.635 0.22305 -0.967688 0.117592
3.2888 20.6302 401.777 0.149978 -0.898578 0.41239
3.00191 20.6514 401.802 -0.023107 -0.830211 0.556971
2.72108 20.6709 401.831 0.0313002 -0.901931 0.430744
2.43027 20.693 401.854 -0.0193151 -0.860346 0.509344
2.24143 20.6852 401.941 -0.14722 -0.823308 0.54817
1.83751 20.7398 401.893 -0.166005 -0.877077 0.450753
1.42347 20.7936 401.836 -0.0646857 -0.967836 0.243124
11.0063 22.7219 391.356 0.484594 -0.816592 -0.313603
11.0847 22.6451 391.629 0.562919 -0.733245 -0.381411
11.1547 22.5707 391.895 0.527521 -0.806438 -0.267171
11.1616 22.5136 392.117 0.439084 -0.873513 -0.210189
11.1221 22.4692 392.307 0.432984 -0.872119 -0.227888
11.1711 22.4007 392.558 0.409702 -0.886364 -0.215645
11.1283 22.3573 392.744 0.43431 -0.873011 -0.22187
11.112 22.3068 392.95 0.527151 -0.818698 -0.227695
11.1346 22.0813 393.829 0.41533 -0.907776 -0.0586798
11.0465 22.05 393.985 0.503877 -0.850796 -0.149181
11.0811 21.9858 394.224 0.535121 -0.826246 -0.175964
11.0345 21.9437 394.408 0.516352 -0.850623 -0.0991015
11.0001 21.8983 394.599 0.51789 -0.855446 0.00138654
10.9019 21.8704 394.746 0.552752 -0.825251 -0.115874
10.882 21.8211 394.948 0.624787 -0.753664 -0.204036
10.8788 21.7669 395.162 0.572938 -0.819097 -0.0286708
10.8262 21.7271 395.339 0.468067 -0.881968 0.0551963
10.7222 21.7006 395.483 0.541351 -0.840726 -0.0108755
10.6677 21.6608 395.66 0.653342 -0.756519 -0.0287002
10.6549 21.6097 395.866 0.559565 -0.815971 0.145185
10.5511 21.5833 396.009 0.40538 -0.890476 0.206689
10.4473 21.557 396.152 0.389016 -0.916688 0.0913742
10.3616 21.5256 396.307 0.434376 -0.89231 -0.122878
10.3867 21.4644 396.539 0.423276 -0.900552 -0.099215
10.3021 21.433 396.695 0.323292 -0.940994 0.10006
10.1807 21.4112 396.826 0.33168 -0.940283 0.0765232
10.1219 21.3729 397 0.42043 -0.902762 -0.090882
10.0847 21.3285 397.188 0.457085 -0.883883 -0.0991139
9.98126 21.3021 397.332 0.396227 -0.915474 0.0700866
9.84701 21.2839 397.454 0.322561 -0.933277 0.157952
9.74288 21.2577 397.596 0.317824 -0.944188 0.086587
9.662 21.2252 397.755 0.358717 -0.933265 0.0183851
9.57875 21.1933 397.912 0.397147 -0.917452 0.0235615
9.45407 21.1726 398.041 0.317504 -0.931589 0.177013
9.26896 21.168 398.128 0.243148 -0.93521 0.257414
9.08801 21.1623 398.219 0.276444 -0.954426 0.112473
8.98381 21.1361 398.362 0.321181 -0.946914 0.0140518
8.93743 21.0945 398.544 0.291835 -0.954723 0.0577515
8.83271 21.0683 398.686 0.279466 -0.957335 0.0735372
8.68441 21.0539 398.799 0.353332 -0.933684 0.0582304
8.58021 21.0276 398.942 0.405354 -0.910399 0.0828401
8.51125 20.992 399.108 0.46583 -0.884858 -0.00533226
8.481 20.9461 399.301 0.429355 -0.901399 0.0559835
8.37724 20.9199 399.443 0.278814 -0.937176 0.209675
8.21016 20.9103 399.545 0.273991 -0.949868 0.150599
8.10551 20.8843 399.687 0.367438 -0.924744 0.0991828
8.00139 20.858 399.829 0.353381 -0.907704 0.226264
7.88579 20.8349 399.965 0.278943 -0.929852 0.239928
7.72601 20.8234 400.07 0.296076 -0.934862 0.195885
7.57277 20.8102 400.18 0.311361 -0.924451 0.2201
7.45445 20.7877 400.314 0.265418 -0.942305 0.203996
7.30744 20.7729 400.428 0.204565 -0.953619 0.220826
7.10046 20.7739 400.502 0.191988 -0.937143 0.291382
6.96369 20.7563 400.624 0.252836 -0.943773 0.212995
6.84831 20.7329 400.759 0.177867 -0.955405 0.23572
6.5819 20.7496 400.794 0.159788 -0.943541 0.290168
6.42068 20.7384 400.9 0.191241 -0.925497 0.326927
6.20119 20.7424 400.967 0.188887 -0.912549 0.362733
6.05149 20.7283 401.079 0.204469 -0.923792 0.323731
5.87158 20.7219 401.173 0.179728 -0.926376 0.330946
5.69255 20.7153 401.267 0.184822 -0.913815 0.361639
5.42702 20.7314 401.303 0.226235 -0.881939 0.413524
5.28677 20.7146 401.423 0.0971352 -0.837341 0.537982
5.02146 20.7306 401.461 0.0784086 -0.925945 0.369429
4.88885 20.7107 401.585 0.100793 -0.959953 0.261402
4.55764 20.7449 401.58 0.157211 -0.927341 0.339593
4.41868 20.7271 401.703 0.335114 -0.849868 0.406723
4.22018 20.7264 401.781 0.0791036 -0.715112 0.69452
4.01944 20.7248 401.863 -0.0607841 -0.800193 0.596654
3.64794 20.7683 401.832 0.069094 -0.951815 0.298788
3.46094 20.7635 401.922 0.137444 -0.938612 0.316411
3.24522 20.7661 401.994 0.033544 -0.884961 0.464456
2.99928 20.7766 402.045 0.00402137 -0.906639 0.421887
2.74432 20.7895 402.091 0.0480198 -0.932153 0.358866
2.51161 20.7964 402.152 -0.0209296 -0.890724 0.454062
2.19753 20.8246 402.162 -0.0798739 -0.865612 0.494304
2.03887 20.8124 402.268 -0.0380301 -0.947516 0.317439
1.68435 20.8507 402.252 -0.132873 -0.915607 0.379484
1.28685 20.8993 402.206 -0.177741 -0.889161 0.421665
0.778873 20.9787 402.09 -0.232726 -0.8298 0.507218
11.3312 22.8109 391.617 0.490973 -0.833467 -0.253532
11.3137 22.7604 391.822 0.58008 -0.733313 -0.354626
11.4577 22.6656 392.14 0.629649 -0.700599 -0.335714
11.4704 22.6069 392.366 0.564128 -0.795396 -0.221597
11.5119 22.5363 392.613 0.538728 -0.806589 -0.243283
11.5155 22.4837 392.831 0.48471 -0.858344 -0.168232
11.4376 22.4505 392.993 0.3922 -0.916041 -0.0839525
11.3544 22.4183 393.151 0.465689 -0.857568 -0.218429
11.3918 22.1883 394.042 0.432569 -0.90155 0.00953904
11.3125 22.1551 394.202 0.478655 -0.86797 -0.132349
11.3228 22.0974 394.425 0.500219 -0.853012 -0.148835
11.231 22.0675 394.577 0.452808 -0.891033 -0.0320336
11.155 22.0337 394.739 0.477114 -0.876013 -0.0704491
11.1673 21.9755 394.963 0.488072 -0.867553 -0.0955914
11.1143 21.9389 395.141 0.522051 -0.833949 -0.178863
11.1447 21.872 395.378 0.516314 -0.847954 -0.119974
11.0418 21.8457 395.521 0.436862 -0.895017 0.0899817
10.9347 21.8202 395.662 0.423506 -0.902193 0.0817956
10.8313 21.7937 395.805 0.491585 -0.866849 -0.0831723
10.826 21.7405 396.016 0.506348 -0.86129 -0.0423218
10.7344 21.7106 396.168 0.445429 -0.89413 0.0460958
10.7082 21.6636 396.363 0.443228 -0.89372 -0.0693776
10.712 21.608 396.581 0.432469 -0.894002 -0.117177
10.6092 21.5814 396.724 0.406814 -0.912554 -0.0418132
10.5108 21.5537 396.87 0.350377 -0.930841 0.103781
10.3816 21.5339 396.997 0.378444 -0.924152 0.0521816
10.3207 21.4962 397.168 0.409997 -0.911209 -0.0400037
10.2173 21.4697 397.311 0.425025 -0.904679 -0.0301626
10.1979 21.4207 397.512 0.405654 -0.912009 0.0607053
10.0942 21.3943 397.655 0.37843 -0.922259 0.0789287
10.0431 21.3539 397.833 0.319239 -0.945119 0.0695405
9.85317 21.3507 397.918 0.297902 -0.952999 0.0552013
9.77815 21.3167 398.08 0.371629 -0.925995 0.0665201
9.67423 21.2904 398.223 0.352158 -0.915697 0.193609
9.58943 21.2591 398.378 0.325463 -0.934071 0.14692
9.55517 21.2141 398.568 0.286038 -0.956281 0.0609018
9.43091 21.1934 398.697 0.284114 -0.958783 -0.0038706
9.3267 21.1672 398.84 0.274643 -0.960632 0.0419097
9.14671 21.1612 398.931 0.218241 -0.963649 0.154119
8.994 21.1482 399.04 0.244045 -0.96529 0.0930401
8.88963 21.122 399.183 0.290001 -0.957025 0.00181671
8.78574 21.0956 399.326 0.343102 -0.937353 -0.0604123
8.71572 21.0605 399.491 0.35996 -0.932016 -0.0421195
8.63496 21.0279 399.65 0.282842 -0.954176 0.0977194
8.50689 21.0083 399.776 0.210525 -0.95746 0.197355
8.28022 21.0147 399.837 0.279515 -0.945006 0.169808
8.17581 20.9886 399.979 0.37218 -0.920737 0.117159
8.07149 20.9625 400.121 0.293056 -0.931626 0.21492
7.8911 20.9566 400.213 0.251524 -0.943471 0.215865
7.78636 20.9305 400.356 0.317518 -0.942816 0.101388
7.70752 20.8976 400.515 0.308627 -0.941062 0.138391
7.5556 20.8809 400.624 0.185671 -0.92726 0.325139
7.32765 20.8907 400.686 0.215992 -0.920576 0.325404
7.20144 20.8704 400.815 0.369273 -0.908139 0.197286
7.09008 20.8461 400.953 0.217149 -0.886371 0.408893
6.83997 20.8585 400.999 0.117198 -0.911374 0.394541
6.6616 20.8519 401.092 0.149186 -0.935885 0.319161
6.44365 20.8558 401.16 0.179598 -0.940365 0.288891
6.30894 20.8376 401.283 0.192926 -0.948132 0.252635
6.0884 20.842 401.349 0.137764 -0.934254 0.328923
5.86941 20.8461 401.416 0.0894434 -0.930343 0.355615
5.65195 20.8496 401.485 0.167819 -0.940293 0.296117
5.53278 20.8273 401.619 0.224481 -0.942304 0.248339
5.40816 20.8064 401.748 0.138705 -0.958068 0.250734
5.1758 20.8138 401.807 -0.00199548 -0.922508 0.385973
4.80928 20.8575 401.779 -0.0128624 -0.910249 0.413861
4.54594 20.872 401.818 0.149844 -0.96454 0.217276
4.42826 20.849 401.952 0.15582 -0.956405 0.247002
4.21908 20.8513 402.028 0.0664215 -0.905418 0.419292
4.04828 20.8413 402.127 0.00693875 -0.883828 0.467761
3.69985 20.8789 402.112 0.0964409 -0.942045 0.321325
3.59185 20.8535 402.253 0.0798924 -0.942992 0.323082
3.2743 20.8829 402.258 0.0171427 -0.910618 0.412893
3.05145 20.8874 402.325 0.0397284 -0.903649 0.426427
2.75566 20.9093 402.343 0.000621936 -0.886886 0.461989
2.50417 20.923 402.393 0.0710608 -0.906034 0.417197
2.28166 20.9273 402.46 0.0794391 -0.888086 0.452761
2.06727 20.9295 402.534 -0.119185 -0.832256 0.541428
1.60667 20.9958 402.447 -0.203992 -0.812387 0.546273
1.20928 21.0467 402.403 -0.113413 -0.914499 0.388366
11.5908 22.807 392.266 0.597307 -0.723042 -0.347038
11.6795 22.7314 392.545 0.580906 -0.767979 -0.269736
11.6374 22.6843 392.732 0.58363 -0.771019 -0.254767
11.7063 22.6096 392.997 0.636726 -0.744941 -0.199104
11.7256 22.5489 393.228 0.524145 -0.849568 -0.0592128
11.6785 22.5075 393.409 0.514549 -0.849757 -0.114679
11.6262 22.4664 393.59 0.598015 -0.769492 -0.224188
11.634 22.4093 393.811 0.622514 -0.74215 -0.248375
11.6891 22.3393 394.065 0.536911 -0.827815 -0.162633
11.6147 22.3047 394.229 0.472112 -0.879863 -0.0543304
11.5813 22.259 394.421 0.552204 -0.828809 -0.0902539
11.5382 22.2156 394.607 0.593652 -0.800693 -0.080425
11.522 22.1655 394.811 0.497568 -0.867349 -0.0115169
11.4584 22.1281 394.982 0.466 -0.88099 -0.0818573
11.397 22.0898 395.155 0.527257 -0.842857 -0.107666
11.3692 22.0433 395.349 0.550571 -0.824509 -0.130601
11.3208 22.0015 395.531 0.525011 -0.850435 -0.0335296
11.2233 21.9732 395.679 0.47501 -0.876213 0.0813431
11.1921 21.9275 395.871 0.433482 -0.901072 0.0127702
11.1317 21.889 396.045 0.438092 -0.897878 -0.0434742
11.0573 21.8549 396.207 0.499607 -0.864758 -0.0508599
11.0209 21.81 396.397 0.556473 -0.829732 -0.0433942
10.9842 21.7658 396.585 0.579376 -0.809446 -0.0955024
10.9133 21.7285 396.751 0.564803 -0.824928 -0.0221507
10.8747 21.6864 396.938 0.515497 -0.849291 0.113873
10.7729 21.6596 397.083 0.425819 -0.892803 0.146906
10.6852 21.6289 397.236 0.425785 -0.904635 0.0185127
10.6517 21.5836 397.427 0.417162 -0.908825 0.00365111
10.5481 21.5573 397.57 0.38617 -0.922178 0.021443
10.438 21.5328 397.708 0.399017 -0.91644 0.0303741
10.3339 21.5065 397.85 0.506859 -0.861692 0.0241011
10.318 21.4566 398.053 0.526823 -0.836941 0.148282
10.2138 21.4305 398.195 0.331329 -0.89138 0.309294
9.99788 21.4344 398.262 0.344572 -0.918324 0.194813
9.88822 21.4097 398.4 0.429209 -0.893686 0.13079
9.78413 21.3835 398.543 0.568523 -0.819047 0.0770863
9.7181 21.3472 398.711 0.617566 -0.768901 0.16554
9.61417 21.3209 398.854 0.533304 -0.799814 0.275471
9.51023 21.2947 398.996 0.472464 -0.818957 0.325711
9.39966 21.2703 399.134 0.371083 -0.885408 0.279911
9.30393 21.2418 399.283 0.340311 -0.931484 0.128556
9.19768 21.2164 399.423 0.340282 -0.93822 0.0628592
9.10757 21.1864 399.575 0.371635 -0.928196 0.0184245
9.02976 21.1533 399.735 0.388793 -0.921113 0.0197783
8.92573 21.1271 399.878 0.326798 -0.932578 0.1533
8.75008 21.1201 399.972 0.224021 -0.902375 0.368149
8.56703 21.1149 400.062 0.26292 -0.923255 0.28013
8.45393 21.0914 400.198 0.325243 -0.943052 0.0697777
8.35479 21.0639 400.344 0.274239 -0.955852 0.105548
8.24531 21.0391 400.483 0.228342 -0.964589 0.132014
8.08178 21.0288 400.586 0.268477 -0.958717 0.0937111
7.94061 21.0125 400.703 0.304519 -0.930988 0.20132
7.7675 21.0047 400.8 0.183405 -0.89163 0.413955
7.54128 21.0122 400.863 0.156465 -0.932835 0.324556
7.35693 21.0063 400.95 0.27019 -0.952221 0.142382
7.24863 20.9811 401.091 0.29251 -0.924761 0.243424
7.13831 20.9564 401.229 0.184815 -0.878917 0.439713
6.88506 20.9698 401.273 0.175988 -0.900634 0.39735
6.75038 20.9514 401.398 0.20751 -0.934686 0.28862
6.54893 20.9516 401.473 0.184729 -0.945675 0.267533
6.40368 20.9359 401.59 0.148003 -0.951007 0.271443
6.23606 20.9265 401.691 0.0544383 -0.939773 0.337436
5.91099 20.9586 401.689 0.118371 -0.964581 0.235736
5.80171 20.9337 401.828 0.276419 -0.956149 0.0968028
5.66929 20.9149 401.953 0.209489 -0.93117 0.298391
5.46328 20.9155 402.029 -0.00250986 -0.871769 0.489911
5.17209 20.9385 402.049 -0.00941079 -0.906073 0.423016
5.00477 20.9281 402.151 0.119116 -0.959459 0.255441
4.76766 20.9375 402.208 0.104136 -0.938884 0.328104
4.48619 20.9578 402.235 0.068048 -0.9253 0.373082
4.22079 20.9738 402.273 0.0477743 -0.90687 0.418694
4.02222 20.9722 402.355 0.115522 -0.942565 0.313409
3.85207 20.9631 402.456 0.079115 -0.914557 0.396643
3.52319 20.9957 402.453 0.00539696 -0.827983 0.560727
3.27996 21.0057 402.507 0.0495402 -0.895811 0.441666
3.03622 21.007 402.554 -0.0244297 -0.883222 0.468319
2.68669 21.0553 402.546 0.0236076 -0.913831 0.405409
2.49781 21.0493 402.634 0.183013 -0.934404 0.305606
2.38517 21.0247 402.773 -0.0303199 -0.82779 0.560218
1.98016 21.0707 402.718 -0.161632 -0.823937 0.543142
1.67521 21.1028 402.737 -0.0969935 -0.917037 0.386828
1.21498 21.1691 402.652 -0.140923 -0.867963 0.476216
0.972408 21.1785 402.707 -0.267213 -0.760706 0.591543
11.8861 22.9034 392.506 0.473778 -0.819745 -0.321795
12.0056 22.8151 392.807 0.478285 -0.837333 -0.264796
11.9222 22.7832 392.964 0.463223 -0.868895 -0.174488
11.9007 22.7338 393.166 0.520222 -0.814875 -0.255632
11.9063 22.677 393.386 0.459061 -0.876997 -0.141912
11.8114 22.6483 393.535 0.464806 -0.880392 -0.094158
11.8307 22.5878 393.765 0.562368 -0.799089 -0.212599
11.8679 22.5225 394.007 0.597092 -0.744752 -0.298038
11.9253 22.4515 394.263 0.598346 -0.787576 -0.147332
11.8225 22.4251 394.406 0.566941 -0.816643 0.108032
11.7193 22.3988 394.549 0.667635 -0.743514 0.0380856
11.6804 22.3542 394.738 0.705363 -0.69776 -0.124879
11.7222 22.2878 394.982 0.60545 -0.789934 -0.0971315
11.6417 22.2553 395.141 0.545934 -0.836898 0.0394754
11.5755 22.2181 395.312 0.580709 -0.810849 -0.0728057
11.5784 22.1634 395.526 0.560929 -0.823579 -0.0841195
11.5038 22.1286 395.69 0.486372 -0.873586 -0.0170201
11.4757 22.0816 395.885 0.465322 -0.882671 -0.0660853
11.4264 22.0404 396.066 0.479475 -0.877251 -0.0231303
11.3228 22.014 396.208 0.483971 -0.87037 0.0907095
11.2192 21.9877 396.351 0.51644 -0.854017 0.0628029
11.1298 21.9572 396.505 0.600332 -0.798975 -0.0352222
11.1107 21.9083 396.704 0.66268 -0.748543 -0.0231957
11.0679 21.8652 396.889 0.623405 -0.779312 0.0635462
10.9646 21.8387 397.033 0.645572 -0.759532 0.0796688
10.9521 21.7879 397.237 0.634652 -0.765594 0.105277
10.8735 21.7547 397.397 0.594496 -0.800254 0.0785428
10.7943 21.7217 397.557 0.615962 -0.783986 0.077176
10.7422 21.6815 397.735 0.551498 -0.814389 0.180613
10.6381 21.6553 397.877 0.448228 -0.840673 0.303909
10.4558 21.6503 397.966 0.528488 -0.820196 0.219041
10.352 21.624 398.109 0.661715 -0.740422 0.117938
10.2984 21.5843 398.285 0.521298 -0.781965 0.34173
10.1942 21.5582 398.428 0.362989 -0.882321 0.299581
10.0686 21.5378 398.555 0.323791 -0.92029 0.219604
9.87148 21.5368 398.634 0.39763 -0.910575 0.112887
9.83063 21.4935 398.82 0.453504 -0.890123 0.0448919
9.72198 21.4686 398.959 0.428306 -0.891475 0.147736
9.62332 21.441 399.105 0.482556 -0.870429 0.09743
9.58964 21.396 399.295 0.474693 -0.87728 0.0710442
9.49967 21.3662 399.446 0.440886 -0.891522 0.103959
9.41686 21.3342 399.604 0.403751 -0.907907 0.112647
9.2921 21.3136 399.732 0.410577 -0.908081 0.0825542
9.20916 21.2818 399.889 0.432006 -0.893989 0.118969
9.08254 21.2618 400.015 0.347032 -0.865235 0.361852
8.88759 21.26 400.097 0.28647 -0.881492 0.375376
8.78314 21.234 400.239 0.350086 -0.92705 0.13423
8.72746 21.195 400.414 0.362864 -0.930774 0.0446
8.62354 21.1688 400.556 0.327115 -0.940583 0.0910999
8.49749 21.1485 400.684 0.271383 -0.93693 0.220259
8.31494 21.1434 400.774 0.211342 -0.922358 0.323406
8.09945 21.147 400.842 0.242299 -0.934582 0.260476
7.9943 21.1211 400.984 0.268526 -0.927225 0.261052
7.88939 21.0952 401.125 0.224007 -0.910553 0.347439
7.70095 21.0915 401.212 0.210172 -0.925865 0.314009
7.47967 21.0965 401.277 0.234528 -0.921026 0.310979
7.24552 21.1049 401.333 0.227708 -0.890612 0.393649
7.11912 21.0847 401.461 0.229967 -0.9208 0.315028
6.95147 21.0754 401.562 0.263303 -0.927954 0.263765
6.8378 21.0517 401.698 0.302731 -0.883323 0.357902
6.66177 21.0446 401.794 0.284349 -0.874783 0.392302
6.47808 21.0395 401.884 0.134927 -0.85776 0.496026
6.27748 21.0389 401.963 0.103485 -0.907599 0.406885
6.02903 21.0507 402.012 0.205007 -0.952197 0.226479
5.86522 21.0406 402.114 0.25661 -0.922583 0.288085
5.72693 21.0232 402.235 0.0872597 -0.850359 0.518918
5.40376 21.0481 402.231 0.0193921 -0.871708 0.489642
5.13989 21.0707 402.273 0.107891 -0.899511 0.423367
4.93463 21.071 402.351 0.142759 -0.878588 0.455744
4.80486 21.0515 402.476 0.0523751 -0.910899 0.409291
4.51352 21.0745 402.498 0.058754 -0.939055 0.338708
4.34129 21.066 402.597 0.0763414 -0.938837 0.335794
3.98119 21.1035 402.571 0.00352604 -0.886019 0.463635
3.75732 21.1121 402.639 0.0646835 -0.88018 0.470212
3.58134 21.1046 402.736 0.101926 -0.901823 0.419913
3.3334 21.1159 402.787 -0.00353203 -0.861519 0.507713
3.07317 21.1392 402.835 -0.0266059 -0.878526 0.476953
2.72229 21.1687 402.813 0.125517 -0.954035 0.272143
2.56437 21.1562 402.923 0.13903 -0.887991 0.438341
2.37788 21.1513 403.014 -0.0735932 -0.778322 0.623537
1.98032 21.2078 402.972 -0.129152 -0.855765 0.500985
1.69372 21.2227 402.995 -0.123957 -0.89025 0.43828
1.24024 21.2873 402.914 -0.171852 -0.849405 0.498977
12.2313 22.9858 392.781 0.551011 -0.792329 -0.26192
12.2312 22.9284 392.997 0.564176 -0.803133 -0.191528
12.1777 22.8901 393.176 0.52129 -0.840771 -0.146153
12.2474 22.8158 393.441 0.50266 -0.828022 -0.24842
12.251 22.7596 393.659 0.418498 -0.902791 -0.0991382
12.1471 22.733 393.803 0.422944 -0.903977 -0.0627967
12.0964 22.6924 393.982 0.5349 -0.813783 -0.227242
12.1185 22.6309 394.214 0.553536 -0.80466 -0.214755
12.0147 22.6041 394.359 0.53131 -0.846892 -0.0220049
11.9405 22.57 394.52 0.525029 -0.831637 0.180901
11.8373 22.5433 394.664 0.590488 -0.805295 -0.0531492
11.9133 22.4675 394.932 0.615069 -0.749402 -0.245124
11.9058 22.4146 395.142 0.536851 -0.838214 -0.095855
11.8073 22.387 395.288 0.518492 -0.854761 -0.023433
11.8253 22.3272 395.515 0.544831 -0.829801 -0.120787
11.7573 22.291 395.683 0.557019 -0.819711 -0.133428
11.803 22.2238 395.929 0.576697 -0.814126 -0.0679676
11.7004 22.1972 396.073 0.495467 -0.868395 0.0200466
11.6029 22.1692 396.219 0.440379 -0.893701 0.0858147
11.491 22.1447 396.358 0.412326 -0.908742 0.0646076
11.4499 22.1017 396.542 0.424836 -0.904041 0.047166
11.3461 22.0753 396.685 0.525739 -0.850048 0.0319037
11.2853 22.0374 396.857 0.644723 -0.764113 -0.0215268
11.2313 21.9975 397.034 0.585713 -0.805415 0.0908113
11.139 21.9682 397.184 0.53047 -0.847429 0.0215743
11.0855 21.9282 397.361 0.551533 -0.833918 -0.0198084
11.0146 21.893 397.526 0.538462 -0.839118 0.0770676
10.9396 21.8589 397.689 0.587162 -0.807119 0.0616408
10.8769 21.8216 397.859 0.562216 -0.808989 0.171607
10.737 21.8051 397.977 0.429266 -0.847873 0.311196
10.647 21.7752 398.129 0.394649 -0.894349 0.210693
10.5438 21.7488 398.272 0.438092 -0.898924 0.00342966
10.5145 21.7025 398.465 0.450355 -0.892847 -0.00205727
10.4234 21.6728 398.616 0.389173 -0.913202 0.120862
10.3249 21.6452 398.762 0.310171 -0.931953 0.18777
10.2209 21.6191 398.904 0.339662 -0.937023 0.0813517
10.1421 21.5861 399.063 0.34749 -0.936462 0.0478545
9.98507 21.5744 399.169 0.338518 -0.935206 0.103899
9.90909 21.5407 399.331 0.374047 -0.927353 -0.0102515
9.80577 21.5144 399.473 0.369672 -0.929103 -0.0104636
9.71913 21.4836 399.627 0.393175 -0.919258 0.0194691
9.64897 21.4484 399.792 0.415033 -0.904963 0.0937518
9.54484 21.4223 399.935 0.439848 -0.875148 0.201619
9.41159 21.404 400.058 0.40837 -0.861948 0.300466
9.23033 21.3988 400.147 0.402332 -0.852557 0.33358
9.18666 21.3563 400.331 0.421552 -0.877883 0.227192
9.05705 21.3373 400.455 0.451726 -0.886227 0.102688
8.97964 21.3039 400.616 0.468731 -0.875828 0.114963
8.84937 21.2849 400.74 0.390033 -0.883921 0.25799
8.69699 21.2717 400.851 0.297144 -0.897006 0.327241
8.53528 21.2613 400.953 0.244586 -0.915344 0.319878
8.42936 21.2355 401.095 0.237205 -0.915872 0.323901
8.17951 21.2484 401.14 0.261572 -0.909625 0.322741
7.98698 21.2459 401.223 0.307409 -0.874855 0.374339
7.83266 21.2332 401.332 0.258155 -0.83678 0.482861
7.66146 21.2249 401.431 0.202196 -0.880473 0.428817
7.5223 21.2082 401.549 0.248427 -0.933544 0.258418
7.39404 21.1884 401.676 0.206665 -0.946423 0.248139
7.15137 21.1992 401.727 0.150335 -0.930766 0.333278
6.89501 21.2136 401.769 0.239633 -0.928403 0.283979
6.78771 21.1881 401.91 0.318778 -0.883142 0.344152
6.63709 21.1742 402.023 0.286891 -0.841516 0.457761
6.47304 21.1643 402.124 0.206871 -0.860117 0.466264
6.30521 21.1548 402.226 0.145672 -0.901015 0.408598
6.05944 21.1661 402.275 0.21014 -0.916721 0.339798
5.89135 21.1569 402.376 0.206389 -0.83018 0.517885
5.71043 21.151 402.469 0.0295286 -0.77788 0.627718
5.40685 21.1839 402.485 0.0571074 -0.890223 0.45193
5.20895 21.1761 402.563 0.195556 -0.964749 0.176114
5.10365 21.1504 402.704 0.0978145 -0.945939 0.309245
4.78281 21.1807 402.709 0.0539327 -0.919025 0.390493
4.60825 21.1736 402.803 0.045696 -0.902892 0.427431
4.32281 21.1947 402.829 -0.0488246 -0.876255 0.479368
3.98536 21.2293 402.824 0.0404208 -0.945089 0.324304
3.77629 21.2314 402.893 0.0857759 -0.945775 0.313292
3.53305 21.237 402.947 0.048377 -0.890697 0.452015
3.28786 21.252 403.002 0.0212638 -0.832368 0.553816
3.06042 21.258 403.066 0.00458521 -0.882232 0.470793
2.69691 21.2995 403.043 0.103708 -0.940463 0.323689
2.5545 21.2832 403.16 0.136905 -0.85817 0.494773
2.40798 21.2678 403.278 -0.0683716 -0.758487 0.648092
1.95101 21.3338 403.194 -0.128433 -0.825636 0.549391
1.68641 21.3492 403.235 -0.081243 -0.928837 0.361471
1.39969 21.3704 403.262 -0.173887 -0.893184 0.414711
0.881764 21.4531 403.141 -0.249473 -0.823761 0.509099
12.432 23.1632 392.738 0.640589 -0.746797 -0.178717
12.3739 23.1262 392.913 0.641803 -0.746339 -0.176258
12.434 23.052 393.172 0.626673 -0.752614 -0.202123
12.4397 22.9952 393.392 0.613571 -0.749835 -0.247542
12.4957 22.9245 393.647 0.644335 -0.733013 -0.218001
12.4047 22.8945 393.799 0.581797 -0.812755 0.0306931
12.3471 22.8553 393.974 0.511069 -0.859538 0.0015654
12.3051 22.8118 394.161 0.57339 -0.798227 -0.184545
12.3505 22.7441 394.408 0.580521 -0.80955 -0.0873186
12.2476 22.7175 394.551 0.431478 -0.895699 0.107469
12.1443 22.6911 394.694 0.41907 -0.907816 -0.0158497
12.1428 22.6364 394.909 0.463586 -0.86581 -0.188312
12.122 22.5872 395.109 0.515503 -0.817802 -0.255847
12.1461 22.5257 395.341 0.516325 -0.853772 -0.066946
12.0438 22.499 395.484 0.521159 -0.850409 -0.0720983
12.05 22.4425 395.703 0.543004 -0.83204 -0.113385
11.9708 22.4094 395.863 0.514514 -0.854815 -0.0675799
11.8881 22.3773 396.02 0.577698 -0.809143 -0.107483
11.9106 22.3164 396.25 0.549399 -0.834973 0.0313048
11.8259 22.2846 396.407 0.482873 -0.874988 0.0350611
11.8233 22.2313 396.617 0.431598 -0.89866 0.078315
11.6184 22.2321 396.692 0.372337 -0.910999 0.177332
11.496 22.2111 396.82 0.42918 -0.895899 0.114756
11.3927 22.1848 396.963 0.568753 -0.821127 -0.047652
11.4286 22.1204 397.202 0.629749 -0.775826 -0.038862
11.3721 22.0813 397.377 0.614227 -0.786841 0.0600539
11.3183 22.0414 397.553 0.617922 -0.780945 0.0910909
11.2187 22.0141 397.698 0.528662 -0.837654 0.137307
11.1117 21.9888 397.839 0.510714 -0.85583 0.0820121
11.0359 21.955 398 0.544151 -0.83105 0.115133
10.9854 21.9143 398.179 0.491919 -0.856895 0.154099
10.8826 21.8878 398.322 0.441561 -0.89611 0.0448487
10.8529 21.8416 398.514 0.404519 -0.914529 -0.000456288
10.7109 21.8257 398.631 0.423615 -0.905556 0.0227889
10.6576 21.7859 398.807 0.428648 -0.898254 0.0969599
10.5244 21.7678 398.929 0.405828 -0.899254 0.163235
10.4205 21.7416 399.072 0.44712 -0.88506 0.12943
10.3168 21.7154 399.214 0.425562 -0.885794 0.185112
10.2142 21.689 399.357 0.462664 -0.881405 0.0952167
10.1945 21.6402 399.556 0.458043 -0.888465 0.0287435
10.0909 21.6139 399.698 0.417182 -0.901427 0.115713
9.98678 21.5878 399.841 0.411462 -0.892744 0.183594
9.79806 21.5848 399.925 0.387774 -0.88123 0.270304
9.64085 21.5729 400.032 0.380297 -0.897038 0.225161
9.5366 21.5468 400.174 0.30471 -0.928012 0.214349
9.40825 21.5275 400.299 0.329645 -0.934559 0.133917
9.29101 21.5049 400.433 0.430357 -0.894393 0.121876
9.18701 21.4788 400.575 0.529625 -0.820734 0.214226
9.09659 21.4491 400.726 0.563626 -0.789226 0.243821
8.99307 21.4229 400.868 0.499398 -0.811775 0.302693
8.90956 21.3913 401.025 0.39405 -0.861545 0.320101
8.7617 21.3759 401.137 0.279117 -0.885957 0.370371
8.51788 21.3884 401.186 0.271129 -0.849164 0.453221
8.4102 21.3632 401.326 0.231407 -0.834126 0.500685
8.19371 21.3673 401.394 0.227413 -0.906885 0.354744
8.05454 21.3506 401.513 0.250365 -0.940026 0.231664
7.91055 21.3351 401.628 0.223541 -0.953764 0.200907
7.75095 21.3239 401.734 0.274619 -0.946635 0.168721
7.63553 21.3008 401.869 0.215881 -0.924682 0.313621
7.42831 21.3022 401.943 0.113167 -0.915413 0.386281
7.27956 21.288 402.056 0.12215 -0.926102 0.356951
6.96252 21.3186 402.058 0.214344 -0.922575 0.3208
6.8365 21.2983 402.186 0.277418 -0.915972 0.289888
6.65684 21.2923 402.279 0.263385 -0.92546 0.27231
6.54545 21.2679 402.417 0.149975 -0.893369 0.423556
6.24298 21.2945 402.429 0.0831387 -0.885261 0.457603
6.02653 21.2982 402.498 0.148604 -0.945537 0.289614
5.83146 21.2961 402.581 0.142464 -0.908431 0.39301
5.69044 21.2797 402.7 0.16981 -0.916643 0.361843
5.55218 21.2625 402.821 0.222427 -0.942804 0.248287
5.33336 21.2666 402.889 0.120079 -0.857786 0.499784
5.07696 21.2836 402.934 0.0496031 -0.86878 0.492708
4.81777 21.2924 402.972 0.0961769 -0.908901 0.405769
4.63466 21.29 403.066 0.0199305 -0.837651 0.545842
4.35989 21.3048 403.096 0.0197517 -0.897687 0.440191
4.14556 21.311 403.17 0.00952619 -0.915285 0.402695
3.76989 21.3628 403.141 -0.0141822 -0.878673 0.477214
3.50214 21.3756 403.177 0.101744 -0.886949 0.450522
3.33066 21.365 403.273 0.0566969 -0.838094 0.542572
3.07592 21.378 403.321 -0.0288564 -0.869232 0.493562
2.65367 21.4184 403.247 0.111458 -0.930085 0.350027
2.51547 21.4177 403.381 0.0871184 -0.851314 0.517373
2.3162 21.4163 403.464 0.0284537 -0.851877 0.522968
2.17117 21.4005 403.582 0.019007 -0.894141 0.447382
1.8078 21.4409 403.558 -0.186688 -0.791189 0.582381
1.30565 21.5198 403.447 -0.237143 -0.800822 0.549951
0.95204 21.5569 403.43 -0.212431 -0.871177 0.442633
0.412457 21.6458 403.296 -0.126011 -0.944705 0.302744
0.0827321 21.6781 403.296 -0.0955667 -0.946949 0.306846
12.603 23.2932 392.89 0.676262 -0.71724 -0.168037
12.6397 23.2246 393.132 0.662495 -0.719448 -0.208552
12.6286 23.1734 393.341 0.652957 -0.717201 -0.243454
12.6515 23.1137 393.573 0.597817 -0.777769 -0.194141
12.5631 23.0833 393.726 0.615215 -0.774618 -0.146552
12.627 23.0102 393.987 0.608433 -0.788804 -0.0871625
12.5842 22.9669 394.172 0.52744 -0.846946 -0.067003
12.5462 22.9223 394.361 0.548148 -0.829044 -0.110545
12.4558 22.8922 394.513 0.596189 -0.794501 -0.115444
12.502 22.8244 394.761 0.549924 -0.835193 -0.00597675
12.4338 22.7882 394.928 0.543396 -0.834319 -0.0929082
12.4605 22.7257 395.162 0.572605 -0.807004 -0.144456
12.3777 22.6939 395.319 0.556534 -0.825951 -0.0898528
12.3116 22.657 395.488 0.574471 -0.817503 -0.0409016
12.2685 22.614 395.672 0.638524 -0.769044 -0.0292964
12.2347 22.5685 395.863 0.650025 -0.755605 -0.0807938
12.2212 22.5174 396.069 0.57321 -0.818912 0.0285094
12.1472 22.4829 396.232 0.590027 -0.806875 -0.0286577
12.0891 22.444 396.406 0.613211 -0.788961 -0.038888
12.0356 22.4043 396.582 0.603766 -0.794652 0.0632059
11.9133 22.3828 396.713 0.583046 -0.782007 0.220278
11.8636 22.3413 396.891 0.474691 -0.824275 0.308608
11.7532 22.3174 397.03 0.416316 -0.892491 0.173611
11.6494 22.2912 397.172 0.474767 -0.88009 0.00617686
11.5463 22.2649 397.315 0.574319 -0.818582 -0.00902258
11.454 22.2354 397.465 0.611545 -0.785745 0.0928239
11.3748 22.2026 397.624 0.654344 -0.755943 0.0196028
11.3997 22.1412 397.855 0.626225 -0.772427 0.105827
11.2968 22.1148 397.997 0.509242 -0.842168 0.177275
11.1935 22.0886 398.14 0.518418 -0.853158 0.0579971
11.1255 22.0526 398.307 0.586619 -0.809831 -0.00725862
11.1347 21.9958 398.526 0.563379 -0.826046 -0.0159003
11.0457 21.9656 398.678 0.471102 -0.874787 0.113181
10.9418 21.9395 398.82 0.474004 -0.864092 0.169311
10.8382 21.9133 398.962 0.495933 -0.844824 0.200805
10.7171 21.8919 399.093 0.479012 -0.835655 0.268753
10.6135 21.8657 399.235 0.473367 -0.860865 0.186639
10.5098 21.8395 399.377 0.45203 -0.878262 0.155964
10.4137 21.8114 399.524 0.491931 -0.870236 0.0263305
10.3489 21.7746 399.693 0.487676 -0.869342 0.080104
10.2069 21.759 399.809 0.439591 -0.870209 0.222478
10.099 21.7339 399.949 0.406163 -0.874529 0.265009
9.99529 21.7078 400.091 0.415741 -0.884167 0.213091
9.9788 21.6582 400.292 0.41298 -0.906079 0.092027
9.8756 21.632 400.433 0.329831 -0.930672 0.158306
9.72324 21.6189 400.543 0.257369 -0.933466 0.249803
9.51069 21.6221 400.613 0.2784 -0.926139 0.254479
9.35 21.6114 400.717 0.394339 -0.901056 0.180542
9.24612 21.5852 400.859 0.469529 -0.872527 0.135053
9.16291 21.5537 401.015 0.477211 -0.868984 0.130909
9.05917 21.5275 401.157 0.424234 -0.878675 0.218989
8.92809 21.5088 401.281 0.265384 -0.812332 0.519314
8.71072 21.5137 401.348 0.272944 -0.834406 0.47882
8.56318 21.4988 401.46 0.323942 -0.895029 0.30657
8.44502 21.4765 401.593 0.346799 -0.882643 0.317287
8.34075 21.4504 401.736 0.385283 -0.8855 0.259704
8.21189 21.4312 401.861 0.261935 -0.903582 0.339012
7.98385 21.4382 401.921 0.261775 -0.916481 0.302548
7.84559 21.4213 402.041 0.281486 -0.904187 0.321266
7.67255 21.4137 402.137 0.166227 -0.868337 0.46729
7.37853 21.4383 402.154 0.105496 -0.840232 0.531865
7.21278 21.4287 402.256 0.186078 -0.912749 0.363682
7.06864 21.4132 402.372 0.25541 -0.947087 0.194401
6.93955 21.3938 402.498 0.231113 -0.932844 0.276385
6.70292 21.403 402.554 0.180951 -0.898707 0.399479
6.57599 21.3829 402.681 0.171371 -0.910983 0.375155
6.44516 21.3639 402.806 0.0757966 -0.925378 0.37139
6.08009 21.4071 402.777 0.0966353 -0.957268 0.272579
5.9575 21.3859 402.908 0.149135 -0.96853 0.199268
5.65245 21.413 402.919 0.115702 -0.921655 0.370358
5.46281 21.4095 403.006 0.194723 -0.871525 0.45003
5.34059 21.3881 403.138 0.0908821 -0.867144 0.489696
5.03454 21.4154 403.149 0.0420345 -0.87893 0.475094
4.76599 21.4325 403.186 0.134967 -0.854053 0.502372
4.61032 21.4198 403.293 0.109217 -0.82517 0.554225
4.32232 21.4463 403.321 -0.0106028 -0.802418 0.596668
4.0577 21.4591 403.358 -0.0733392 -0.798857 0.597034
3.67557 21.5056 403.32 0.036019 -0.925554 0.376897
3.50465 21.4968 403.421 0.12127 -0.961493 0.246629
3.31361 21.4882 403.505 -0.0376121 -0.890183 0.454048
2.98882 21.5251 403.509 0.00308457 -0.906886 0.421364
2.80762 21.5283 403.613 0.102998 -0.926423 0.362121
2.47069 21.5547 403.594 0.0934737 -0.920423 0.379584
2.22553 21.5553 403.643 0.134977 -0.87202 0.470492
2.07578 21.5486 403.764 -0.0875543 -0.686865 0.721492
1.72691 21.5888 403.752 -0.170154 -0.772148 0.612238
1.32102 21.6395 403.701 -0.196791 -0.829188 0.523183
0.880329 21.7036 403.631 -0.172156 -0.87164 0.458918
0.54993 21.7335 403.629 -0.131961 -0.903831 0.407033
0.127069 21.7882 403.568 -0.172736 -0.865836 0.469563
-0.411512 21.8824 403.44 -0.213435 -0.801282 0.558921
-0.696442 21.8991 403.467 -0.266941 -0.737486 0.620369
12.7918 23.4213 393.055 0.635113 -0.741438 -0.216567
12.7679 23.3715 393.254 0.681824 -0.692221 -0.23653
12.8332 23.2959 393.516 0.694446 -0.664423 -0.276199
12.892 23.2243 393.773 0.63658 -0.760794 -0.126325
12.8216 23.1852 393.94 0.605458 -0.787412 -0.115771
12.8204 23.1337 394.154 0.592531 -0.784417 -0.183295
12.7828 23.089 394.343 0.58769 -0.807466 -0.051181
12.7284 23.0489 394.521 0.626657 -0.77927 -0.00628982
12.7096 22.9958 394.723 0.59518 -0.798119 -0.0936316
12.6483 22.961 394.895 0.594905 -0.800019 -0.0778363
12.5937 22.9212 395.072 0.699873 -0.713655 -0.0295662
12.5362 22.8769 395.247 0.683596 -0.724797 -0.0858168
12.5474 22.8232 395.471 0.581925 -0.813199 -0.00840415
12.4765 22.7884 395.634 0.550641 -0.832699 0.0583681
12.3732 22.7619 395.777 0.673777 -0.73805 -0.0361525
12.3997 22.6997 396.01 0.762946 -0.643342 -0.0634312
12.3233 22.6651 396.172 0.78307 -0.610697 0.117692
12.2598 22.6287 396.341 0.791899 -0.601355 0.106155
12.2395 22.5794 396.542 0.682535 -0.727572 0.0691749
12.1364 22.553 396.685 0.575581 -0.800018 0.169345
12.0646 22.5181 396.848 0.558065 -0.818831 0.13446
11.9716 22.4886 396.999 0.580711 -0.807846 0.100797
11.9233 22.4475 397.178 0.554598 -0.815575 0.165103
11.8281 22.4188 397.327 0.447404 -0.881591 0.150425
11.7245 22.3925 397.47 0.436313 -0.898135 0.0546291
11.6862 22.3486 397.656 0.467654 -0.883814 0.0131322
11.6119 22.3142 397.819 0.51234 -0.858519 -0.0212586
11.5094 22.2877 397.962 0.589118 -0.807911 -0.0148191
11.4854 22.2398 398.158 0.549085 -0.831783 0.0815003
11.4143 22.2047 398.323 0.482814 -0.871669 0.0841713
11.3205 22.1759 398.472 0.579769 -0.813054 -0.0530226
11.3073 22.1319 398.677 0.653776 -0.756618 0.0103336
11.204 22.1006 398.818 0.547374 -0.794535 0.262861
11.0768 22.0811 398.944 0.473651 -0.844376 0.250368
10.955 22.0579 399.074 0.462748 -0.856366 0.229134
10.8514 22.0317 399.216 0.495556 -0.853125 0.1631
10.793 21.9933 399.389 0.503566 -0.853708 0.132677
10.6974 21.965 399.536 0.517454 -0.848077 0.114045
10.6522 21.9229 399.718 0.530284 -0.841487 0.103439
10.5319 21.9014 399.849 0.527667 -0.824139 0.205823
10.4621 21.866 400.014 0.47673 -0.839918 0.259357
10.3246 21.8492 400.133 0.425804 -0.876479 0.224668
10.2065 21.827 400.265 0.505693 -0.85599 0.107501
10.1032 21.8008 400.408 0.56452 -0.815502 0.127568
9.99947 21.7747 400.55 0.511199 -0.785075 0.349761
9.8748 21.758 400.679 0.362496 -0.791099 0.492705
9.71578 21.7431 400.783 0.291876 -0.854896 0.428906
9.56975 21.7285 400.897 0.364197 -0.901591 0.233439
9.46607 21.7024 401.039 0.433723 -0.893587 0.115703
9.36984 21.6743 401.186 0.437778 -0.891151 0.119166
9.26572 21.6483 401.327 0.311666 -0.904498 0.291115
9.01513 21.6617 401.372 0.240037 -0.890471 0.386579
8.91002 21.6359 401.513 0.304234 -0.90911 0.284538
8.78841 21.6148 401.643 0.263794 -0.921459 0.285176
8.54785 21.6254 401.694 0.334878 -0.898916 0.2825
8.44344 21.5994 401.836 0.473829 -0.848531 0.235544
8.33611 21.5744 401.976 0.353807 -0.844501 0.402042
8.18463 21.561 402.087 0.288788 -0.847485 0.445389
8.01216 21.5533 402.184 0.323869 -0.830526 0.453139
7.83201 21.5476 402.276 0.197193 -0.787891 0.583389
7.64466 21.5438 402.363 0.172013 -0.882851 0.43702
7.48905 21.5316 402.471 0.237958 -0.938588 0.249859
7.32199 21.5223 402.572 0.244555 -0.925818 0.288192
7.11289 21.5243 402.645 0.211569 -0.889681 0.404607
6.94232 21.516 402.744 0.212506 -0.902751 0.374008
6.74682 21.5142 402.826 0.272483 -0.92641 0.259842
6.59316 21.5014 402.936 0.193572 -0.890927 0.410828
6.47477 21.479 403.069 0.140421 -0.919622 0.366848
6.2663 21.4747 403.14 0.0721644 -0.910294 0.407623
5.97123 21.5054 403.161 0.00725832 -0.872314 0.488893
5.68933 21.5266 403.188 0.168665 -0.955243 0.24303
5.57746 21.5023 403.325 0.143802 -0.888522 0.435717
5.27553 21.5287 403.339 -0.0268778 -0.759587 0.649851
4.9611 21.5583 403.345 0.0850783 -0.898773 0.43008
4.7786 21.5529 403.437 0.12169 -0.915067 0.384505
4.56435 21.5592 403.511 0.0201954 -0.880733 0.473183
4.27598 21.5773 403.532 0.00953508 -0.897334 0.44125
4.13473 21.5592 403.651 0.0691236 -0.929453 0.362408
3.90563 21.5686 403.714 0.109514 -0.947986 0.29888
3.6624 21.5765 403.766 -0.0394147 -0.87573 0.481189
3.23341 21.6396 403.701 -0.0332506 -0.886242 0.462027
3.01151 21.6433 403.769 0.110049 -0.901617 0.418302
2.8616 21.6271 403.881 0.00766594 -0.83155 0.555397
2.46504 21.6795 403.838 0.0282892 -0.906627 0.420984
2.22396 21.6956 403.898 0.05967 -0.890965 0.450134
1.99872 21.699 403.963 -0.0538661 -0.779414 0.624189
1.72457 21.7123 403.995 -0.17225 -0.755314 0.632321
1.23825 21.7876 403.894 -0.171094 -0.837765 0.518534
0.859698 21.8239 403.856 -0.146897 -0.876383 0.458665
0.456502 21.8843 403.815 -0.211493 -0.802732 0.557576
0.0287427 21.9424 403.753 -0.216385 -0.802841 0.555539
-0.564889 22.0342 403.577 -0.206465 -0.801348 0.561438
-0.846158 22.0636 403.617 -0.232248 -0.784547 0.574932
13.0066 23.5357 393.238 0.616243 -0.769278 -0.168691
12.9751 23.489 393.432 0.615746 -0.74763 -0.248809
13.0377 23.416 393.692 0.640436 -0.715603 -0.278843
12.9783 23.3788 393.865 0.641781 -0.75014 -0.159397
13.0098 23.3134 394.103 0.69361 -0.702073 -0.161242
13.0298 23.2526 394.333 0.707304 -0.704722 -0.0555712
12.9269 23.226 394.476 0.689734 -0.716441 0.104781
12.8658 23.1911 394.648 0.670089 -0.734481 -0.107328
12.9085 23.1206 394.894 0.593152 -0.800698 -0.0839863
12.8055 23.0942 395.037 0.547906 -0.830469 0.1006
12.7115 23.0661 395.185 0.661291 -0.743105 -0.102422
12.8175 22.9796 395.474 0.634816 -0.752728 -0.174381
12.7381 22.9476 395.634 0.548486 -0.836084 -0.011274
12.659 22.9148 395.793 0.506243 -0.849184 0.150348
12.5389 22.8923 395.926 0.543777 -0.83901 0.0191806
12.4812 22.854 396.098 0.580305 -0.814302 -0.0125482
12.3779 22.8275 396.241 0.628065 -0.777352 0.0354766
12.3892 22.7695 396.463 0.719508 -0.686413 -0.105572
12.3901 22.7145 396.678 0.690499 -0.723315 0.00514226
12.33 22.6762 396.85 0.585655 -0.803042 0.110146
12.2592 22.641 397.015 0.554598 -0.821263 0.133972
12.1572 22.6142 397.159 0.592052 -0.794836 0.133076
12.0819 22.5804 397.32 0.632714 -0.774049 0.0228232
12.0817 22.5257 397.533 0.538977 -0.839627 0.0673119
11.9846 22.4976 397.68 0.486221 -0.868749 0.0941539
11.8814 22.4714 397.822 0.535804 -0.838795 0.0966267
11.7782 22.4451 397.965 0.542812 -0.828154 0.139702
11.7114 22.4088 398.132 0.600587 -0.799387 0.0165851
11.6778 22.3635 398.322 0.655587 -0.754385 0.0333075
11.5885 22.3334 398.474 0.56913 -0.804324 0.170743
11.4885 22.3063 398.619 0.539934 -0.836199 0.0961341
11.3854 22.28 398.761 0.632318 -0.771632 0.0689798
11.3531 22.2344 398.952 0.647448 -0.735978 0.19786
11.2786 22.2003 399.113 0.563951 -0.775145 0.284796
11.1756 22.174 399.256 0.459802 -0.865649 0.198076
11.072 22.1479 399.398 0.4236 -0.901668 0.0869426
10.9669 22.1222 399.539 0.447907 -0.889076 0.094467
10.8633 22.0961 399.681 0.485038 -0.868597 0.101379
10.7597 22.0699 399.823 0.487437 -0.853959 0.182095
10.6255 22.0522 399.944 0.573842 -0.787489 0.224868
10.565 22.0143 400.116 0.650365 -0.712585 0.26315
10.4631 21.9879 400.258 0.536768 -0.776895 0.329111
10.3593 21.9618 400.401 0.49975 -0.834176 0.233239
10.2555 21.9356 400.543 0.48703 -0.840591 0.237084
10.1284 21.916 400.668 0.490547 -0.817937 0.300571
10.0142 21.8928 400.804 0.470236 -0.804554 0.362728
9.8943 21.8711 400.935 0.401353 -0.843991 0.355802
9.7587 21.8537 401.055 0.409362 -0.879444 0.242901
9.65501 21.8275 401.198 0.442729 -0.886457 0.134852
9.56279 21.7985 401.347 0.476395 -0.864065 0.162602
9.45912 21.7724 401.489 0.352667 -0.853228 0.384224
9.30991 21.7576 401.601 0.27856 -0.87849 0.38815
9.14528 21.7489 401.703 0.356152 -0.897551 0.259917
9.00149 21.7338 401.817 0.231799 -0.88587 0.401875
8.78813 21.7371 401.887 0.222999 -0.920581 0.320627
8.65971 21.7177 402.012 0.339892 -0.930268 0.138112
8.53425 21.6975 402.14 0.309772 -0.904804 0.292183
8.32652 21.6993 402.214 0.243215 -0.859318 0.44991
8.12539 21.6994 402.291 0.276716 -0.869929 0.408229
7.99703 21.6799 402.418 0.29776 -0.893821 0.335295
7.86611 21.661 402.542 0.253687 -0.916937 0.308007
7.68873 21.6547 402.636 0.242192 -0.89968 0.363208
7.49629 21.6523 402.72 0.228108 -0.863212 0.450369
7.31607 21.6466 402.812 0.23527 -0.895031 0.378902
7.16809 21.6323 402.925 0.279434 -0.87777 0.389149
7.00934 21.6207 403.033 0.277384 -0.867553 0.412807
6.8309 21.6129 403.123 0.297921 -0.89272 0.338075
6.65287 21.6083 403.219 0.232251 -0.851474 0.470161
6.39991 21.6219 403.264 0.111028 -0.764548 0.634933
6.20151 21.6232 403.346 0.103668 -0.78436 0.611581
6.02408 21.6144 403.44 0.088362 -0.839943 0.535432
5.64 21.6628 403.399 0.0960408 -0.834921 0.541926
5.49002 21.6489 403.512 0.0785474 -0.814777 0.57443
5.27111 21.6532 403.58 0.102132 -0.880971 0.462017
5.07747 21.6508 403.665 0.131923 -0.921565 0.365122
4.83392 21.6512 403.719 0.0577343 -0.892756 0.446826
4.6067 21.6688 403.777 0.0217203 -0.900441 0.434435
4.23827 21.7118 403.753 0.0903453 -0.918992 0.383786
4.09005 21.6999 403.866 0.14272 -0.861294 0.487652
3.8402 21.7018 403.911 -0.00343253 -0.753169 0.657818
3.60249 21.7212 403.974 -0.0936394 -0.765682 0.636366
3.13793 21.7877 403.883 0.0682896 -0.903757 0.422564
3.0186 21.7653 404.017 0.0957216 -0.902374 0.420189
2.78231 21.775 404.077 -0.0176065 -0.83763 0.545954
2.51296 21.7911 404.113 0.0014961 -0.842823 0.538189
2.13997 21.8356 404.085 0.0349607 -0.843182 0.53649
1.95011 21.8268 404.169 -0.0506137 -0.733317 0.678001
1.62832 21.8625 404.178 -0.141768 -0.744468 0.652433
1.29383 21.8967 404.174 -0.175136 -0.810929 0.558321
0.785645 21.978 404.061 -0.205491 -0.814353 0.542773
0.356075 22.0352 403.996 -0.225453 -0.791441 0.568148
-0.0848835 22.1004 403.928 -0.197569 -0.824865 0.529683
-0.515673 22.1673 403.871 -0.179885 -0.845366 0.502989
-0.944468 22.2194 403.804 -0.244261 -0.749249 0.615599
13.2176 23.654 393.418 0.590936 -0.775027 -0.223893
13.2018 23.603 393.623 0.580705 -0.778179 -0.239206
13.2405 23.5368 393.866 0.628431 -0.746806 -0.217613
13.2326 23.4836 394.076 0.605454 -0.789535 -0.100299
13.1518 23.4508 394.235 0.610699 -0.783468 -0.114995
13.0785 23.416 394.399 0.583516 -0.811593 -0.0287246
13.0377 23.3721 394.586 0.602598 -0.790002 -0.113017
13.1408 23.2882 394.873 0.617816 -0.759745 -0.202712
13.0635 23.2545 395.034 0.598981 -0.800711 0.00915761
12.9747 23.224 395.187 0.557031 -0.823593 0.106821
12.9453 23.1782 395.381 0.645273 -0.740398 -0.188237
12.9593 23.1181 395.605 0.726255 -0.670044 -0.153609
12.897 23.0804 395.776 0.623347 -0.770805 0.131523
12.8147 23.0482 395.933 0.567491 -0.816792 0.103941
12.7851 23.0014 396.127 0.592166 -0.802189 0.076368
12.7135 22.9661 396.292 0.573135 -0.81249 0.10666
12.6375 22.9325 396.453 0.578598 -0.814167 0.0485492
12.5422 22.9038 396.601 0.676568 -0.73025 -0.0948242
12.5268 22.8519 396.804 0.704286 -0.707955 -0.0527335
12.4739 22.8129 396.982 0.637321 -0.761629 0.117232
12.3711 22.7865 397.124 0.556988 -0.806096 0.199936
12.2678 22.7603 397.266 0.572274 -0.816064 0.0808798
12.258 22.7082 397.473 0.657434 -0.750884 -0.062875
12.2085 22.667 397.653 0.654954 -0.751987 0.0745045
12.1052 22.6409 397.795 0.601568 -0.744919 0.288466
12.002 22.6147 397.937 0.641493 -0.728673 0.239839
11.9502 22.5741 398.115 0.582235 -0.801621 0.135671
11.847 22.5479 398.257 0.536748 -0.83989 0.0805416
11.7442 22.5216 398.4 0.654818 -0.755338 0.0260488
11.7573 22.4634 398.622 0.660157 -0.744686 0.0981658
11.6693 22.433 398.774 0.551254 -0.79833 0.242462
11.5537 22.4101 398.908 0.591119 -0.785365 0.183794
11.4532 22.3832 399.052 0.665764 -0.726105 0.171845
11.3505 22.3568 399.195 0.730578 -0.672654 0.117441
11.383 22.2935 399.429 0.65541 -0.746596 0.114155
11.2802 22.2672 399.572 0.503004 -0.838177 0.210823
11.1787 22.2405 399.715 0.472216 -0.859956 0.193617
11.0697 22.216 399.853 0.475557 -0.857189 0.197667
10.9659 22.1899 399.995 0.400265 -0.864475 0.304091
10.7778 22.1869 400.08 0.407642 -0.881703 0.237546
10.6743 22.1608 400.222 0.518035 -0.852393 0.0711746
10.6328 22.1178 400.406 0.550704 -0.820606 0.152743
10.5295 22.0916 400.548 0.543106 -0.800047 0.254873
10.4221 22.0666 400.687 0.48744 -0.806151 0.335444
10.2683 22.0542 400.795 0.476613 -0.809653 0.342493
10.1612 22.029 400.935 0.521287 -0.805608 0.281522
10.0577 22.003 401.077 0.501052 -0.813818 0.29436
9.95409 21.9769 401.219 0.503961 -0.830218 0.238246
9.86729 21.9461 401.373 0.473473 -0.83912 0.267771
9.68693 21.9413 401.461 0.483553 -0.833136 0.268443
9.605 21.9089 401.62 0.434839 -0.832469 0.343381
9.40995 21.908 401.699 0.361145 -0.822634 0.439145
9.29196 21.8854 401.834 0.408181 -0.852355 0.326925
9.18107 21.8616 401.97 0.361539 -0.841152 0.402185
9.03966 21.8429 402.086 0.338701 -0.836985 0.429812
8.8831 21.8332 402.193 0.35651 -0.857674 0.370534
8.69863 21.8295 402.282 0.31079 -0.818132 0.483807
8.53015 21.8209 402.381 0.270074 -0.8307 0.486824
8.38443 21.8061 402.496 0.288555 -0.90143 0.322739
8.23237 21.7931 402.606 0.332044 -0.914723 0.230277
8.10734 21.7727 402.734 0.26552 -0.863694 0.428407
7.83901 21.7908 402.768 0.221611 -0.835582 0.502684
7.69903 21.7743 402.887 0.286565 -0.867806 0.405949
7.53957 21.7635 402.991 0.215399 -0.85275 0.475837
7.2554 21.7856 403.015 0.270101 -0.866091 0.420633
7.14939 21.76 403.156 0.327476 -0.86341 0.383774
6.96329 21.7559 403.245 0.277269 -0.852108 0.443884
6.80965 21.7466 403.357 0.181223 -0.831518 0.525106
6.55836 21.7514 403.397 0.125487 -0.812792 0.568877
6.3442 21.7598 403.471 0.179932 -0.832601 0.523831
6.10669 21.7693 403.526 0.100879 -0.765236 0.635797
5.93291 21.7617 403.624 0.0776557 -0.83786 0.540334
5.66784 21.7785 403.661 0.113119 -0.923428 0.366722
5.45169 21.7822 403.731 0.156862 -0.901631 0.403057
5.27014 21.7747 403.822 0.170394 -0.851778 0.495418
5.03163 21.7762 403.877 0.14785 -0.826074 0.543822
4.8698 21.7852 403.986 0.0338418 -0.80836 0.587715
4.5881 21.7964 404.012 -0.00269772 -0.81301 0.582243
4.25159 21.832 404.005 0.0998323 -0.853656 0.511181
4.03652 21.8313 404.073 0.0686807 -0.834909 0.546085
3.74287 21.8591 404.097 -0.0437991 -0.764359 0.643301
3.50772 21.8657 404.154 0.0611984 -0.862132 0.502975
3.32741 21.8586 404.248 0.088743 -0.884572 0.457883
2.93681 21.9109 404.209 -0.0187694 -0.81022 0.585826
2.66977 21.9265 404.247 -0.006723 -0.778538 0.627562
2.42012 21.9384 404.297 -0.0147841 -0.749139 0.662248
2.04592 21.9727 404.26 0.032989 -0.795724 0.604761
1.8526 21.9817 404.355 -0.0209493 -0.788123 0.615161
