14.7065 53.9117 389.644 0.713411 0.011219 -0.700656
14.8912 53.8636 389.783 0.668909 0.0473772 -0.741833
15.0021 53.8207 389.937 0.784286 0.138086 -0.604838
15.1235 53.7661 390.088 0.771499 0.134747 -0.621798
15.2871 53.7198 390.231 0.68904 0.118781 -0.714923
15.4616 53.6642 390.37 0.796846 0.0823383 -0.598546
15.5316 53.6367 390.536 0.883293 0.0290093 -0.467922
15.6539 53.6036 390.688 0.812335 -0.0396862 -0.581839
15.7658 53.5539 390.841 0.837066 -0.112288 -0.535455
15.8177 53.5212 391.009 0.773792 -0.135062 -0.618873
15.9651 53.468 391.154 0.748948 -0.0550349 -0.660339
16.0604 53.4328 391.312 0.821072 -0.0132954 -0.570669
16.1709 53.3861 391.466 0.79799 -0.0385898 -0.601434
16.2827 53.3436 391.62 0.829641 0.0505015 -0.556009
16.3995 53.3089 391.773 0.867446 0.0927999 -0.4888
16.5129 53.2725 391.927 0.844252 0.0346088 -0.534828
16.6045 53.2284 392.085 0.895744 0.0529984 -0.4414
16.6584 53.2021 392.253 0.937378 0.108348 -0.331035
16.7193 53.1754 392.419 0.894066 0.0997679 -0.436682
16.8225 53.1328 392.574 0.899999 0.0437671 -0.433689
16.8878 53.1044 392.739 0.909052 -0.0264795 -0.415841
16.9779 53.0654 392.898 0.888116 -0.109398 -0.446411
17.0699 53.0367 393.057 0.863119 -0.178188 -0.472519
17.1348 53.0097 393.222 0.851961 -0.160306 -0.498463
17.2138 52.9644 393.382 0.837646 -0.149262 -0.525424
17.3164 52.931 393.538 0.835006 -0.121464 -0.536667
17.3983 52.8969 393.698 0.912927 -0.0211218 -0.407575
17.4696 52.8629 393.861 0.932477 0.0075924 -0.36115
17.5688 52.8316 394.018 0.894271 -0.145919 -0.423068
17.6401 52.7992 394.181 0.887094 -0.268067 -0.375771
17.6772 52.7625 394.351 0.919944 -0.257142 -0.29594
17.7146 52.7374 394.522 0.901913 -0.256062 -0.347829
17.7741 52.7108 394.689 0.85089 -0.250918 -0.461547
17.8886 52.6662 394.84 0.818369 -0.266527 -0.509152
17.9648 52.6292 395.001 0.861555 -0.270211 -0.429778
18.0239 52.6027 395.168 0.955847 -0.247531 -0.158383
18.032 52.5909 395.347 0.94052 -0.321733 -0.109129
18.0648 52.566 395.52 0.874001 -0.382328 -0.299914
18.1059 52.5351 395.689 0.856933 -0.322848 -0.40179
18.1701 52.5062 395.854 0.869098 -0.283952 -0.405019
18.2402 52.4722 396.017 0.861661 -0.278239 -0.424409
18.3113 52.4413 396.18 0.884937 -0.211788 -0.414767
18.3699 52.408 396.345 0.925089 -0.176577 -0.336201
18.4069 52.383 396.516 0.982394 -0.18089 -0.0466986
18.3671 52.3766 396.708 0.972342 -0.232665 0.0204316
18.5321 52.2689 397.388 0.983329 -0.177703 -0.0385465
18.5249 52.2585 397.573 0.977149 -0.190408 -0.0944743
18.5579 52.2362 397.745 0.945868 -0.2317 -0.227263
18.5948 52.2112 397.916 0.957019 -0.181185 -0.226464
18.6277 52.1864 398.088 0.977379 -0.207093 0.0429387
18.5811 52.1779 398.281 0.939538 -0.340809 -0.0334395
18.6258 52.1472 398.451 0.903805 -0.296812 -0.308283
18.6706 52.1217 398.62 0.936204 -0.187705 -0.297134
18.728 52.0954 398.786 0.956926 -0.173029 -0.233139
18.7489 52.0764 398.963 0.981339 -0.151838 -0.117981
18.7721 52.0552 399.138 0.983399 -0.179943 -0.0233916
18.7691 52.0372 399.319 0.96027 -0.277638 -0.0282607
18.7659 52.0196 399.501 0.963588 -0.260594 -0.0599046
18.7767 51.9962 399.68 0.971444 -0.236141 -0.02313
18.7684 51.9841 399.863 0.971209 -0.233853 -0.0454623
18.7722 51.9634 400.043 0.975407 -0.196046 -0.100734
18.8003 51.9413 400.217 0.968194 -0.243986 0.0554241
18.8005 51.9416 400.403 0.90175 -0.380396 0.205293
18.7134 51.9243 400.604 0.859164 -0.511324 -0.0196075
18.7498 51.898 400.776 0.880714 -0.430005 -0.198593
18.7711 51.874 400.951 0.948447 -0.316103 -0.0229578
18.774 51.8802 401.137 0.922248 -0.345956 0.172547
18.6711 51.8691 401.342 0.922203 -0.361623 0.137003
18.7014 51.8449 401.518 0.937495 -0.347154 0.0242185
18.6435 51.8418 401.711 0.968074 -0.248887 0.0297851
18.6504 51.8264 401.895 0.982668 -0.158693 0.0958124
18.6593 51.8191 402.078 0.932623 -0.340586 0.119224
18.5801 51.8018 402.276 0.939051 -0.334542 0.0791458
18.6015 51.7835 402.455 0.945324 -0.274413 0.176239
18.5158 51.7781 402.655 0.89324 -0.378413 0.242747
18.4487 51.7791 402.858 0.925045 -0.323518 0.199066
18.4163 51.7622 403.049 0.953539 -0.286222 0.0940214
18.4272 51.7482 403.229 0.9444 -0.317668 0.0848226
18.419 51.7478 403.416 0.877689 -0.366096 0.309252
18.271 51.7536 403.638 0.868045 -0.438423 0.232986
18.2622 51.735 403.823 0.94324 -0.318688 0.0934715
18.2261 51.7382 404.018 0.934138 -0.204818 0.292292
18.1663 51.7294 404.213 0.940037 -0.259386 0.22147
18.1637 51.7097 404.4 0.894123 -0.352491 0.276215
18.0378 51.7096 404.614 0.827702 -0.479255 0.291931
18.0063 51.7011 404.805 0.847599 -0.503219 0.168362
17.9482 51.7093 405.008 0.906064 -0.380268 0.185591
17.8845 51.6927 405.206 0.954131 -0.244046 0.173424
17.8413 51.6825 405.402 0.898254 -0.180403 0.400742
17.7268 51.6688 405.613 0.823543 -0.277528 0.494727
17.5881 51.7033 405.839 0.855648 -0.30385 0.418976
17.4973 51.6941 406.046 0.889302 -0.275194 0.365254
17.4063 51.7071 406.257 0.889351 -0.149596 0.432061
17.2709 51.71 406.478 0.88357 -0.0558074 0.464962
17.2089 51.7141 406.68 0.937957 -0.201587 0.282135
17.1735 51.6985 406.872 0.855964 -0.270405 0.440688
16.9875 51.7288 407.111 0.816575 -0.212515 0.536695
16.9611 51.743 407.304 0.880951 -0.269175 0.389192
16.7888 51.7479 407.536 0.853758 -0.276063 0.44146
16.6848 51.738 407.749 0.77114 -0.223066 0.59631
16.4438 51.7708 408.001 0.75027 -0.249314 0.612321
16.3506 51.7699 408.212 0.758451 -0.328855 0.562678
16.0927 51.8208 408.473 0.814907 -0.222832 0.535044
16.0562 51.8002 408.666 0.854501 -0.189136 0.483793
15.9324 51.7846 408.883 0.672765 -0.361818 0.645349
15.5829 51.8726 409.172 0.713994 -0.386217 0.583994
15.5527 51.8602 409.366 0.811668 -0.250427 0.527713
15.2859 51.8942 409.629 0.650598 -0.196094 0.733669
14.9805 51.9379 409.902 0.661599 -0.364959 0.655051
14.822 51.9535 410.133 0.760266 -0.341473 0.552622
14.6253 51.9479 410.371 0.72455 -0.281799 0.628981
14.4841 51.986 410.601 0.63988 -0.370381 0.673328
14.1672 52.0378 410.881 0.662682 -0.373901 0.648884
14.0432 52.0464 411.104 0.608468 -0.348751 0.712839
13.549 52.1379 411.435 0.578064 -0.338507 0.742466
13.2936 52.1638 411.694 0.656269 -0.281814 0.699923
12.9915 52.2073 411.971 0.589921 -0.159966 0.791457
12.5713 52.299 412.284 0.549539 -0.20861 0.809005
12.1998 52.3419 412.578 0.556316 -0.332136 0.761708
11.8896 52.4253 412.864 0.522055 -0.363937 0.771368
7.54481 56.2798 384.542 0.399122 0.105784 -0.910775
7.86364 56.2 384.656 0.376534 0.132924 -0.916817
8.18326 56.1069 384.77 0.440828 0.150339 -0.884912
8.40711 56.041 384.904 0.45629 0.146283 -0.877725
8.7127 55.9576 385.02 0.399505 0.138164 -0.906259
9.00784 55.8897 385.14 0.536164 0.179778 -0.824747
9.15774 55.8244 385.289 0.521222 0.187514 -0.832566
9.46515 55.7443 385.404 0.531328 0.134008 -0.8365
9.62205 55.698 385.554 0.550141 0.0350012 -0.834338
9.87259 55.6121 385.678 0.440164 0.0584793 -0.896011
10.1616 55.5337 385.797 0.562881 0.0361413 -0.825747
10.2772 55.4882 385.953 0.620582 0.00969191 -0.784081
10.5087 55.419 386.084 0.544247 0.0562111 -0.83704
10.7339 55.3567 386.217 0.538533 0.0327274 -0.841969
10.9359 55.3054 386.355 0.517852 0.0430396 -0.854387
11.1729 55.236 386.484 0.468988 0.0719546 -0.880269
11.4337 55.1771 386.61 0.547754 0.117716 -0.828317
11.5832 55.1117 386.756 0.658341 0.138573 -0.739854
11.7845 55.0509 386.893 0.704962 0.0327888 -0.708487
11.9158 55.0034 387.045 0.600543 -0.0162768 -0.799427
12.138 54.94 387.177 0.581482 0.0854114 -0.809063
12.3082 54.886 387.32 0.726722 0.0753606 -0.682786
12.4296 54.8448 387.475 0.731137 0.0392488 -0.6811
12.579 54.7774 387.62 0.559834 0.0159029 -0.828452
12.8494 54.711 387.741 0.522685 -0.041126 -0.851533
13.0122 54.6652 387.886 0.548193 -0.0543991 -0.834581
13.2262 54.5989 388.019 0.656629 -0.0242854 -0.753823
13.3395 54.5495 388.173 0.783817 -0.0709809 -0.616921
13.4661 54.5156 388.326 0.694263 -0.0837687 -0.714829
13.6328 54.457 388.469 0.763435 -0.019467 -0.645592
13.7072 54.4274 388.633 0.798877 0.0402919 -0.600143
13.8699 54.3797 388.777 0.638278 0.0633737 -0.767193
14.0708 54.3232 388.913 0.630292 0.0861843 -0.77156
14.2002 54.2623 389.062 0.727317 0.166119 -0.665894
14.3604 54.2195 389.207 0.840909 0.0546357 -0.538411
14.4376 54.1915 389.371 0.757335 -0.0816769 -0.647899
14.5966 54.1346 389.514 0.685287 0.00919174 -0.728215
14.7579 54.0827 389.657 0.722363 -0.0238093 -0.691104
14.8734 54.0357 389.811 0.72689 -0.0183974 -0.686507
15.0175 53.9926 389.958 0.774297 0.0268191 -0.632253
15.1399 53.949 390.111 0.738635 -0.0161062 -0.673913
15.2707 53.896 390.26 0.671481 0.0587589 -0.738689
15.4487 53.8486 390.399 0.78222 0.126848 -0.609952
15.5306 53.8029 390.56 0.842209 0.0502403 -0.536806
15.6689 53.7671 390.709 0.77768 -0.0216233 -0.628288
15.7819 53.7242 390.863 0.831241 -0.020261 -0.555542
15.9208 53.6916 391.012 0.81343 -0.140367 -0.564473
15.9821 53.6483 391.177 0.770954 -0.107788 -0.627703
16.1415 53.597 391.319 0.772958 -0.157943 -0.614484
16.228 53.5672 391.48 0.794772 -0.256201 -0.55018
16.2994 53.5297 391.642 0.833332 -0.0880774 -0.545711
16.3877 53.5002 391.804 0.826624 0.046631 -0.56082
16.4963 53.4579 391.957 0.861154 0.130714 -0.491252
16.5632 53.4233 392.122 0.92158 0.164445 -0.351635
16.6247 53.3773 392.285 0.92659 0.14505 -0.346976
16.7119 53.3513 392.446 0.868489 0.0800928 -0.489196
16.8287 53.3186 392.6 0.86637 0.0167043 -0.499123
16.9113 53.2779 392.759 0.859469 -0.0944051 -0.502396
17.029 53.2356 392.911 0.830696 -0.197818 -0.520397
17.0932 53.2059 393.076 0.869776 -0.183354 -0.458116
17.1887 53.173 393.234 0.856757 -0.163763 -0.489028
17.2866 53.1322 393.391 0.849584 -0.151413 -0.505254
17.3573 53.0972 393.553 0.896258 -0.122166 -0.426378
17.3955 53.0718 393.725 0.924415 -0.0470335 -0.378476
17.4661 53.0227 393.885 0.852024 -0.0247366 -0.522918
17.6033 52.9887 394.034 0.845694 -0.0792414 -0.527752
17.6727 52.9615 394.198 0.93616 -0.101159 -0.336706
17.7198 52.9343 394.367 0.947406 -0.134216 -0.29053
17.7884 52.9056 394.531 0.901258 -0.234348 -0.364438
17.8637 52.8751 394.693 0.824468 -0.286198 -0.488204
17.9442 52.8354 394.853 0.841917 -0.216635 -0.494212
18.0061 52.8055 395.018 0.924512 -0.139393 -0.35475
18.0448 52.7803 395.189 0.972097 -0.0958501 -0.214105
18.0818 52.7553 395.36 0.974652 -0.128987 -0.182798
18.1234 52.7285 395.531 0.933108 -0.259842 -0.248578
18.1608 52.7056 395.702 0.879543 -0.307516 -0.363095
18.2496 52.6675 395.86 0.877184 -0.260505 -0.403343
18.2902 52.6421 396.031 0.915476 -0.1937 -0.352682
18.3388 52.6157 396.199 0.928295 -0.101544 -0.357711
18.4021 52.589 396.364 0.954571 -0.0693216 -0.289807
18.4392 52.564 396.535 0.990003 -0.114934 -0.0817617
18.4572 52.5401 396.712 0.963453 -0.253574 -0.0863633
18.5547 52.4503 397.41 0.995354 -0.0830722 -0.0486762
18.5869 52.4256 397.582 0.961967 -0.224402 -0.15577
18.6239 52.4005 397.754 0.918458 -0.349238 -0.185656
18.6239 52.384 397.934 0.907827 -0.348966 -0.232536
18.6957 52.3567 398.098 0.947214 -0.301355 -0.109411
18.6982 52.3437 398.278 0.944291 -0.328438 -0.0210529
18.6851 52.3215 398.463 0.937781 -0.282684 -0.201634
18.7219 52.2947 398.634 0.93471 -0.222192 -0.277396
18.7589 52.2697 398.805 0.961287 -0.191303 -0.198317
18.7685 52.2509 398.984 0.982757 -0.127822 -0.133601
18.7994 52.2262 399.157 0.981405 -0.148341 -0.121814
18.8218 52.2028 399.332 0.978306 -0.207061 -0.0064826
18.7962 52.194 399.52 0.955676 -0.292665 -0.0320925
18.8195 52.1761 399.696 0.966147 -0.256865 -0.0241056
18.795 52.1599 399.883 0.980706 -0.195215 -0.0102995
18.8199 52.1424 400.059 0.973687 -0.185637 -0.132185
18.8434 52.1182 400.234 0.982157 -0.168374 -0.0837753
18.8427 52.0988 400.414 0.967825 -0.23452 0.0911911
18.8412 52.0807 400.597 0.930168 -0.360264 0.0706927
18.8055 52.0786 400.789 0.939445 -0.338316 -0.0546395
18.7955 52.0576 400.972 0.98347 -0.178378 -0.031122
18.791 52.0367 401.156 0.97443 -0.127589 0.184954
18.7354 52.018 401.348 0.941236 -0.29764 0.15964
18.7235 52.017 401.536 0.92502 -0.360468 0.120002
18.6602 52.0144 401.735 0.957939 -0.261773 0.117591
18.6685 51.9952 401.915 0.974824 -0.199074 -0.100438
18.703 51.9744 402.089 0.9704 -0.192395 0.145973
18.6068 51.9586 402.29 0.921627 -0.353678 0.159736
18.6209 51.9584 402.475 0.938033 -0.337605 0.0782106
18.6046 51.9377 402.659 0.903861 -0.301024 0.304007
18.5055 51.9505 402.871 0.919056 -0.317116 0.234038
18.5029 51.9429 403.055 0.955414 -0.289467 0.0582515
18.459 51.9247 403.248 0.94839 -0.315875 0.0279293
18.4565 51.9084 403.431 0.924357 -0.280028 0.259131
18.3793 51.8912 403.632 0.875432 -0.335371 0.34806
18.2854 51.9041 403.842 0.923662 -0.315141 0.218025
18.2415 51.9023 404.039 0.945327 -0.228211 0.232976
18.1817 51.8881 404.235 0.96988 -0.216694 0.111253
18.2023 51.8745 404.414 0.96672 -0.19657 0.163747
18.1672 51.8593 404.605 0.896489 -0.319285 0.307188
18.079 51.8662 404.813 0.883377 -0.356692 0.304001
17.9838 51.8705 405.024 0.917349 -0.230396 0.324638
17.9132 51.8552 405.223 0.931912 -0.265411 0.24718
17.8765 51.8626 405.42 0.888736 -0.330562 0.317612
17.779 51.8626 405.63 0.837458 -0.260183 0.480592
17.6451 51.8768 405.852 0.869254 -0.218113 0.443648
17.5897 51.8794 406.051 0.874894 -0.188609 0.446079
17.3788 51.9087 406.295 0.851722 -0.229628 0.471
17.3228 51.8952 406.491 0.897219 -0.285348 0.337008
17.2675 51.8904 406.693 0.92608 -0.311391 0.213099
17.2327 51.8874 406.886 0.825509 -0.316197 0.467498
17.0006 51.9001 407.133 0.831809 -0.252131 0.494494
16.9256 51.888 407.337 0.894459 -0.226666 0.385442
16.8231 51.8882 407.549 0.808398 -0.349437 0.473694
16.7049 51.9169 407.77 0.748313 -0.352348 0.562031
16.5053 51.9073 408.007 0.772991 -0.293105 0.562649
16.3906 51.9511 408.229 0.75278 -0.227958 0.617541
16.1084 51.9901 408.495 0.805524 -0.239099 0.542183
16.0831 51.97 408.685 0.910148 -0.311369 0.273275
16.0158 51.9841 408.892 0.721016 -0.208067 0.660941
15.7086 52.0216 409.164 0.686548 -0.30844 0.65842
15.5246 52.0298 409.399 0.721436 -0.447164 0.528748
15.3757 52.0671 409.635 0.650808 -0.39591 0.647845
15.1632 52.0837 409.877 0.628209 -0.416066 0.657452
14.8406 52.1413 410.157 0.757249 -0.32405 0.567067
14.8283 52.1606 410.351 0.764277 -0.323932 0.557628
14.5248 52.168 410.617 0.652672 -0.330712 0.681652
14.2366 52.1949 410.888 0.70096 -0.277861 0.656847
14.065 52.2262 411.125 0.646445 -0.239383 0.724434
13.7098 52.2828 411.416 0.566516 -0.291652 0.770713
13.3362 52.3548 411.713 0.566746 -0.429154 0.703296
13.0086 52.3939 411.995 0.57478 -0.293318 0.763932
12.6034 52.4606 412.301 0.592002 -0.165665 0.788726
12.2837 52.5097 412.582 0.59636 -0.247642 0.763563
11.9041 52.5712 412.882 0.529276 -0.219661 0.819522
7.55923 56.4616 384.564 0.411364 0.0969039 -0.906305
7.84495 56.3771 384.685 0.380805 0.0981153 -0.919435
8.14308 56.3002 384.804 0.434702 0.117993 -0.892811
8.40378 56.2262 384.931 0.452072 0.15614 -0.878209
8.68538 56.1516 385.052 0.426847 0.168011 -0.88858
8.93297 56.0629 385.18 0.544776 0.234434 -0.805146
9.13802 56.0158 385.319 0.490997 0.209126 -0.845688
9.47083 55.924 385.429 0.47545 0.122505 -0.871172
9.67993 55.8628 385.565 0.553587 0.0323682 -0.832162
9.895 55.7996 385.7 0.437884 0.0359311 -0.898313
10.1786 55.7202 385.82 0.566974 0.15451 -0.809115
10.3315 55.6751 385.969 0.655189 0.149446 -0.740536
10.5271 55.6099 386.108 0.531558 0.0580616 -0.845029
10.7508 55.5441 386.24 0.552485 0.0926217 -0.828361
10.9522 55.4831 386.378 0.540531 0.0812945 -0.837387
11.1816 55.4152 386.508 0.497351 0.0545857 -0.86583
11.3884 55.3438 386.642 0.566736 0.117136 -0.815531
11.5992 55.2917 386.779 0.599028 0.11227 -0.792819
11.813 55.2279 386.913 0.654411 -0.00734247 -0.756103
11.932 55.1847 387.068 0.668157 0.00564183 -0.743999
12.1063 55.1326 387.21 0.594997 0.133363 -0.792586
12.3252 55.0803 387.344 0.715276 0.187838 -0.673125
12.4283 55.0154 387.499 0.699863 0.118448 -0.704388
12.6763 54.9666 387.627 0.517856 -0.00768349 -0.855433
12.867 54.8965 387.764 0.535374 0.00343008 -0.844608
13.0831 54.8324 387.896 0.594824 0.00877809 -0.803808
13.2429 54.7809 388.041 0.660318 0.0369949 -0.750075
13.4188 54.7257 388.182 0.776393 0.0255174 -0.629732
13.5067 54.6893 388.343 0.736489 -0.116409 -0.666358
13.6497 54.6409 388.492 0.796365 -0.0545843 -0.602349
13.7237 54.6108 388.656 0.79607 0.0487921 -0.603235
13.8904 54.5547 388.799 0.643458 0.0142945 -0.765348
14.04 54.4935 388.944 0.672972 -0.0221386 -0.739337
14.1929 54.455 389.091 0.670977 0.0731733 -0.737859
14.4058 54.3909 389.222 0.751369 0.027389 -0.659313
14.4862 54.3576 389.385 0.799563 -0.0961507 -0.592835
14.6142 54.3253 389.538 0.657962 -0.0567576 -0.750909
14.8011 54.2554 389.673 0.71785 -0.0606644 -0.69355
14.8901 54.219 389.834 0.758909 -0.0172645 -0.650968
15.0526 54.1669 389.976 0.739398 -0.00236444 -0.673264
15.1656 54.1345 390.133 0.762218 -0.0907242 -0.640932
15.2879 54.0875 390.284 0.699816 -0.0759694 -0.710272
15.4285 54.0498 390.432 0.740865 0.0537181 -0.669502
15.5852 53.9891 390.575 0.802763 0.0711277 -0.592041
15.6849 53.9386 390.73 0.788145 -0.0206677 -0.615143
15.8062 53.8881 390.881 0.759718 -0.0630758 -0.647186
15.9361 53.8545 391.032 0.836594 -0.0858988 -0.541047
15.9988 53.8273 391.199 0.757742 -0.0526655 -0.650426
16.2103 53.7449 391.326 0.746834 -0.0996901 -0.657496
16.2586 53.7188 391.496 0.917839 -0.126394 -0.376293
16.3138 53.6872 391.662 0.908262 -0.0553103 -0.41473
16.3941 53.6725 391.827 0.872749 -0.019972 -0.48776
16.4743 53.6271 391.986 0.88502 0.0487428 -0.462994
16.5604 53.5999 392.148 0.918123 0.0492712 -0.393221
16.6326 53.57 392.311 0.892877 0.0121069 -0.450138
16.7382 53.5404 392.468 0.814797 -0.0938415 -0.572101
16.845 53.4905 392.621 0.751784 -0.230284 -0.617892
16.986 53.4432 392.767 0.747372 -0.281892 -0.60164
17.076 53.4023 392.926 0.831782 -0.24292 -0.499128
17.1431 53.3627 393.089 0.871037 -0.203841 -0.446926
17.22 53.3317 393.251 0.851844 -0.210503 -0.479635
17.2832 53.3007 393.416 0.870809 -0.162159 -0.464108
17.3733 53.2722 393.575 0.932196 -0.0974995 -0.348575
17.4116 53.247 393.747 0.922807 -0.043556 -0.382793
17.5294 53.2114 393.899 0.817835 -0.0689134 -0.571311
17.6208 53.1708 394.057 0.859004 -0.050382 -0.509484
17.6888 53.1364 394.22 0.939356 0.00334616 -0.342927
17.7466 53.101 394.385 0.912027 -0.112848 -0.394299
17.842 53.0704 394.543 0.877625 -0.195651 -0.437601
17.8982 53.033 394.709 0.879686 -0.22666 -0.418064
17.9657 53.0059 394.873 0.892017 -0.220727 -0.394442
18.0194 52.9797 395.041 0.946017 -0.142218 -0.291251
18.0563 52.9487 395.211 0.953738 -0.165746 -0.250822
18.1036 52.9229 395.38 0.921649 -0.207296 -0.328012
18.1916 52.8953 395.54 0.926804 -0.206231 -0.313854
18.2289 52.8702 395.711 0.927717 -0.200265 -0.315017
18.2693 52.8429 395.881 0.936982 -0.144587 -0.318056
18.3082 52.8121 396.052 0.962767 -0.0957296 -0.252815
18.3486 52.7901 396.223 0.947943 -0.0668592 -0.311341
18.4095 52.7602 396.388 0.949144 -0.0691669 -0.307152
18.4549 52.727 396.555 0.957229 -0.16947 -0.234507
18.5005 52.7013 396.726 0.938428 -0.26997 -0.215567
18.5293 52.6792 396.899 0.945738 -0.291242 -0.144076
18.5291 52.6592 397.08 0.952254 -0.280762 -0.119937
18.5637 52.6501 397.254 0.964966 -0.21027 -0.156933
18.5845 52.626 397.429 0.954082 -0.201399 -0.221734
18.6438 52.592 397.594 0.916255 -0.271704 -0.294369
18.6989 52.5658 397.761 0.935505 -0.298579 -0.188892
18.7181 52.5436 397.937 0.924078 -0.34402 -0.166523
18.7229 52.5237 398.117 0.950561 -0.282437 -0.129087
18.7178 52.5057 398.299 0.978126 -0.206598 0.0242335
18.7006 52.4871 398.483 0.960297 -0.237487 -0.146392
18.7749 52.4615 398.647 0.941493 -0.238689 -0.237947
18.7754 52.4469 398.827 0.978686 -0.16521 -0.12198
18.8037 52.4265 399.002 0.980124 -0.126976 -0.152429
18.8325 52.404 399.176 0.97374 -0.153864 -0.167801
18.8559 52.3821 399.351 0.981068 -0.170702 -0.09147
18.8898 52.3573 399.523 0.960529 -0.278118 0.00581699
18.8378 52.3494 399.718 0.927724 -0.372566 0.0228594
18.8464 52.3264 399.896 0.94417 -0.328109 -0.0298109
18.8361 52.3154 400.081 0.978457 -0.177249 -0.105856
18.863 52.2909 400.255 0.986179 -0.101368 -0.131053
18.8963 52.2665 400.427 0.983197 -0.181004 -0.0237045
18.8689 52.2538 400.616 0.96884 -0.223082 0.107624
18.8407 52.2465 400.806 0.973647 -0.19224 0.1227
18.8126 52.2416 400.996 0.98137 -0.187136 0.0435228
18.8088 52.2206 401.179 0.988188 -0.14973 0.0326458
18.8382 52.1992 401.352 0.967878 -0.229245 0.103244
18.7907 52.189 401.546 0.896801 -0.395 0.199304
18.7373 52.1934 401.743 0.890086 -0.433844 0.139737
18.7072 52.1759 401.933 0.924271 -0.370773 -0.0908309
18.7279 52.1517 402.109 0.968145 -0.25017 -0.0105301
18.756 52.128 402.283 0.933112 -0.313542 0.176051
18.6627 52.1311 402.491 0.901446 -0.420488 0.102882
18.6645 52.1199 402.674 0.904095 -0.318601 0.28479
18.5217 52.122 402.893 0.941962 -0.215909 0.257081
18.5454 52.0977 403.069 0.979312 -0.198483 0.0393909
18.5195 52.0816 403.256 0.95543 -0.283922 0.0808826
18.5122 52.0777 403.443 0.917614 -0.340439 0.205149
18.413 52.0816 403.653 0.89522 -0.246128 0.371486
18.3404 52.0855 403.856 0.91954 -0.264135 0.290997
18.2967 52.0717 404.05 0.920173 -0.319664 0.226046
18.2385 52.0673 404.249 0.956715 -0.261312 0.128113
18.219 52.0544 404.437 0.983235 -0.17616 0.0470751
18.2075 52.0394 404.622 0.943559 -0.15291 0.293793
18.096 52.0462 404.836 0.895039 -0.161708 0.41564
18.0058 52.0489 405.045 0.944582 -0.13705 0.298299
18.0058 52.0379 405.229 0.954795 -0.231154 0.186906
17.9595 52.024 405.424 0.872188 -0.324255 0.36626
17.7963 52.0469 405.653 0.824412 -0.254056 0.505767
17.6605 52.0433 405.873 0.860851 -0.224097 0.456855
17.5352 52.0378 406.087 0.884432 -0.219582 0.411782
17.5219 52.0666 406.287 0.849744 -0.326519 0.41391
17.3591 52.0565 406.505 0.854669 -0.431461 0.288759
17.3416 52.0551 406.699 0.922167 -0.334107 0.194884
17.2788 52.0416 406.897 0.807833 -0.29199 0.512003
17.058 52.0854 407.146 0.79196 -0.354246 0.497302
17.0358 52.0782 407.337 0.880732 -0.382474 0.279328
16.9807 52.0757 407.538 0.829046 -0.302036 0.470592
16.7856 52.074 407.775 0.751172 -0.272092 0.601421
16.5672 52.117 408.023 0.767629 -0.240534 0.594045
16.3839 52.1154 408.256 0.751524 -0.256627 0.607745
16.2192 52.1495 408.49 0.772657 -0.405778 0.488207
16.149 52.1534 408.695 0.813027 -0.489602 0.315084
15.9817 52.1576 408.927 0.762004 -0.273853 0.586817
15.8087 52.1845 409.163 0.71206 -0.371137 0.596009
15.7403 52.2181 409.377 0.668007 -0.53567 0.51655
15.508 52.212 409.619 0.651427 -0.419226 0.632371
15.1773 52.2275 409.895 0.653529 -0.207305 0.727959
14.8767 52.3098 410.174 0.787838 -0.166817 0.59286
14.8421 52.298 410.368 0.807255 -0.288467 0.514904
14.596 52.3268 410.625 0.638612 -0.272631 0.719616
14.2847 52.3863 410.905 0.697511 -0.250676 0.671297
14.1181 52.3894 411.137 0.68476 -0.196525 0.70177
13.7793 52.4466 411.424 0.621968 -0.237555 0.746139
13.5801 52.4772 411.669 0.562773 -0.342934 0.752118
13.0265 52.5776 412.018 0.535095 -0.307398 0.78688
12.619 52.6209 412.321 0.594466 -0.270562 0.757236
12.3681 52.6774 412.586 0.590662 -0.274552 0.758775
7.55327 56.6491 384.591 0.422935 0.16753 -0.890539
7.89595 56.5612 384.701 0.393067 0.102539 -0.913774
8.15945 56.4852 384.827 0.450285 0.0919935 -0.888133
8.38976 56.415 384.96 0.452791 0.12339 -0.883038
8.67592 56.3305 385.08 0.458401 0.141189 -0.877459
8.91517 56.2648 385.211 0.525747 0.154434 -0.836505
9.14704 56.1961 385.343 0.434102 0.120341 -0.89279
9.47578 56.1086 385.454 0.435097 0.107787 -0.893909
9.69545 56.0358 385.587 0.564022 0.182963 -0.805235
9.90543 55.9797 385.724 0.546153 0.213545 -0.810009
10.0874 55.9236 385.866 0.573725 0.223092 -0.78808
10.3097 55.8524 385.999 0.591678 0.201667 -0.780543
10.5424 55.7901 386.13 0.563386 0.102463 -0.819816
10.7261 55.7346 386.272 0.545364 0.0945903 -0.832845
10.9823 55.6505 386.395 0.520641 0.083845 -0.849649
11.1995 55.6015 386.531 0.537113 0.0400106 -0.842561
11.4056 55.5338 386.666 0.556618 0.0515964 -0.829165
11.6122 55.467 386.802 0.5339 0.0745398 -0.842256
11.8565 55.3986 386.928 0.668949 0.0214373 -0.743
11.9306 55.3685 387.093 0.748055 0.00820299 -0.663586
12.1027 55.3106 387.237 0.639314 0.175106 -0.748743
12.2641 55.2493 387.38 0.673949 0.218969 -0.705582
12.4569 55.2088 387.52 0.595699 0.0997217 -0.796993
12.6858 55.1348 387.649 0.54203 0.0431535 -0.839251
12.8633 55.084 387.791 0.566816 0.0913106 -0.818769
13.0992 55.0115 387.919 0.638526 0.128616 -0.758777
13.2015 54.9794 388.077 0.682727 0.166495 -0.711451
13.4162 54.9129 388.209 0.70596 0.168948 -0.687806
13.5594 54.8544 388.356 0.8071 0.0141602 -0.590245
13.6474 54.8246 388.518 0.855606 -0.0392186 -0.51614
13.7227 54.7917 388.682 0.759521 0.0686428 -0.646851
13.9397 54.7265 388.813 0.6294 0.0322826 -0.776411
14.1118 54.6863 388.957 0.715134 -0.0850362 -0.693795
14.1875 54.6445 389.118 0.638464 0.00257837 -0.769648
14.4272 54.5697 389.244 0.70226 0.0860701 -0.706698
14.507 54.5323 389.406 0.816082 0.0084875 -0.577874
14.6675 54.4872 389.55 0.669677 -0.046015 -0.741226
14.8173 54.4302 389.695 0.759134 -0.0278491 -0.650339
14.9021 54.4011 389.857 0.772633 0.026142 -0.634314
15.0683 54.3343 389.997 0.691945 -0.014504 -0.721804
15.2291 54.2895 390.142 0.74627 -0.136858 -0.651422
15.3282 54.255 390.299 0.77688 -0.136504 -0.614674
15.4256 54.2143 390.457 0.748812 0.00101399 -0.662782
15.5647 54.1644 390.605 0.745103 0.154527 -0.648801
15.721 54.127 390.75 0.77122 0.168244 -0.613932
15.8556 54.0843 390.899 0.775788 0.0350567 -0.630019
15.969 54.0371 391.052 0.850143 -0.0300941 -0.525691
16.0486 54.0014 391.214 0.728836 -0.0587995 -0.682158
16.2284 53.9413 391.351 0.787771 -0.000360789 -0.615969
16.2664 53.9144 391.522 0.952536 0.0664034 -0.297096
16.3422 53.8824 391.685 0.923419 0.0280809 -0.382764
16.4101 53.8463 391.849 0.904428 -0.0213653 -0.426092
16.4874 53.8168 392.011 0.877625 -0.0860151 -0.471567
16.5775 53.7883 392.171 0.88563 -0.0886151 -0.455859
16.6501 53.7529 392.334 0.788478 -0.204144 -0.580197
16.8242 53.7039 392.473 0.659863 -0.319536 -0.680057
16.9644 53.6503 392.619 0.6761 -0.353666 -0.646381
17.0543 53.6069 392.777 0.775678 -0.314774 -0.547029
17.1125 53.5802 392.944 0.871926 -0.193338 -0.449851
17.1997 53.5444 393.103 0.877605 -0.143409 -0.457431
17.2825 53.5165 393.264 0.88912 -0.143758 -0.43451
17.3586 53.4887 393.427 0.901313 -0.177856 -0.394971
17.3914 53.4613 393.599 0.942097 -0.127097 -0.310321
17.433 53.4321 393.769 0.89846 -0.0305592 -0.437991
17.5455 53.3849 393.921 0.837884 -0.0616368 -0.542358
17.6175 53.3536 394.084 0.89947 -0.0482814 -0.434307
17.692 53.3219 394.246 0.888944 -0.0121579 -0.457854
17.8214 53.2809 394.395 0.881681 -0.0599937 -0.468017
17.8705 53.2472 394.563 0.893985 -0.0579901 -0.44433
17.9838 53.2161 394.717 0.919621 -0.0440931 -0.390324
18.021 53.1866 394.887 0.958429 -0.0302379 -0.283726
18.0583 53.1595 395.059 0.95544 -0.0258517 -0.294049
18.1342 53.1319 395.221 0.950254 -0.102962 -0.293966
18.1707 53.0978 395.391 0.932136 -0.173686 -0.317734
18.2083 53.0725 395.562 0.936688 -0.172846 -0.304531
18.2454 53.0469 395.733 0.960354 -0.11732 -0.252894
18.2969 53.0209 395.901 0.963794 -0.0826933 -0.253502
18.3354 52.9981 396.073 0.968027 -0.0919227 -0.233396
18.3726 52.9731 396.244 0.945567 -0.0833327 -0.314577
18.4484 52.9446 396.406 0.911636 -0.119268 -0.393312
18.5346 52.9103 396.565 0.931636 -0.160687 -0.325936
18.5729 52.884 396.736 0.956808 -0.190267 -0.21981
18.5993 52.8607 396.91 0.974878 -0.185731 -0.122955
18.6172 52.8427 397.087 0.977879 -0.203228 -0.0494996
18.5865 52.8218 397.274 0.973486 -0.17171 -0.15113
18.6608 52.7943 397.437 0.942142 -0.154116 -0.297685
18.6996 52.7638 397.607 0.914044 -0.265928 -0.306276
18.7367 52.738 397.778 0.933261 -0.274279 -0.231935
18.7669 52.7134 397.951 0.966864 -0.238663 -0.0906298
18.7605 52.7026 398.135 0.966642 -0.253666 -0.035439
18.7772 52.6855 398.312 0.946174 -0.32213 -0.0314324
18.7863 52.6711 398.491 0.904977 -0.388861 -0.172639
18.8117 52.6408 398.664 0.931752 -0.324062 -0.163777
18.7969 52.6249 398.849 0.974468 -0.203729 -0.0943797
18.8334 52.5939 399.02 0.96167 -0.199465 -0.188161
18.8569 52.5769 399.195 0.961129 -0.209604 -0.179716
18.893 52.5527 399.368 0.953955 -0.223228 -0.200348
18.9229 52.5288 399.541 0.973912 -0.209038 -0.0883039
18.9581 52.5045 399.713 0.956528 -0.282679 0.0717377
18.891 52.5024 399.912 0.906938 -0.410489 0.094665
18.8572 52.493 400.102 0.881292 -0.468473 -0.0621129
18.8896 52.4698 400.276 0.9248 -0.31321 -0.215975
18.9265 52.4449 400.447 0.989899 -0.132288 -0.0509925
18.9116 52.4379 400.633 0.965465 -0.223215 0.134357
18.8639 52.4209 400.826 0.968082 -0.223249 0.113919
18.8655 52.4054 401.008 0.977379 -0.196901 0.0771972
18.8254 52.3972 401.201 0.964551 -0.256936 -0.0602026
18.862 52.3722 401.372 0.975161 -0.202208 -0.0904015
18.8912 52.3477 401.546 0.950199 -0.253338 0.1815
18.8128 52.3486 401.749 0.891407 -0.405949 0.201492
18.7899 52.3365 401.938 0.914814 -0.401904 0.0398573
18.7608 52.3259 402.127 0.940717 -0.330606 -0.0758401
18.7738 52.3102 402.306 0.965462 -0.254142 0.0573969
18.7728 52.2993 402.491 0.939115 -0.268947 0.213845
18.6811 52.2916 402.695 0.877076 -0.313368 0.364058
18.5703 52.3031 402.908 0.890587 -0.393769 0.227596
18.5753 52.2822 403.089 0.944951 -0.323557 -0.048776
18.5827 52.2616 403.267 0.983283 -0.178013 0.0382945
18.5737 52.2464 403.453 0.916866 -0.271551 0.292602
18.4306 52.2655 403.676 0.886114 -0.299281 0.353883
18.4196 52.2449 403.861 0.925405 -0.296152 0.236473
18.3343 52.2489 404.067 0.899807 -0.341809 0.271135
18.2737 52.2473 404.267 0.906099 -0.377133 0.191717
18.2362 52.2399 404.46 0.954571 -0.285191 0.0863746
18.226 52.24 404.648 0.943269 -0.155531 0.29335
18.1121 52.2243 404.859 0.895358 -0.123338 0.427928
18.026 52.2258 405.066 0.951438 -0.230134 0.204461
18.0289 52.2093 405.249 0.957744 -0.277713 0.0748419
17.9974 52.1979 405.441 0.880554 -0.205805 0.42693
17.8328 52.2157 405.67 0.81001 -0.258742 0.526248
17.7409 52.2419 405.882 0.804906 -0.402194 0.43631
17.6393 52.2346 406.091 0.824538 -0.475666 0.306395
17.5688 52.2205 406.295 0.821266 -0.454888 0.344382
17.4451 52.2093 406.509 0.796487 -0.487531 0.357663
17.3697 52.2211 406.717 0.881377 -0.418904 0.218388
17.3358 52.2085 406.909 0.826533 -0.303641 0.473967
17.1719 52.2352 407.141 0.781828 -0.368319 0.503076
17.0424 52.2369 407.361 0.87599 -0.338653 0.343447
16.9324 52.2358 407.575 0.863648 -0.127891 0.487603
16.8028 52.2616 407.798 0.771661 -0.0982826 0.628395
16.5839 52.2905 408.045 0.777669 -0.199642 0.596132
16.5159 52.3097 408.252 0.772164 -0.339081 0.537388
16.3329 52.3167 408.489 0.791444 -0.388854 0.471603
16.2576 52.3078 408.692 0.806695 -0.34376 0.4807
16.0508 52.3422 408.937 0.770699 -0.370975 0.518074
16.0038 52.3261 409.135 0.74113 -0.450016 0.498209
15.753 52.3458 409.39 0.720757 -0.317366 0.61627
15.5443 52.3522 409.631 0.613317 -0.259182 0.746101
15.1388 52.4793 409.944 0.618978 -0.217219 0.754772
14.9506 52.4693 410.18 0.817052 -0.204669 0.539016
14.9077 52.4487 410.376 0.788125 -0.342745 0.511259
14.6656 52.5115 410.635 0.618439 -0.323309 0.716243
14.2923 52.5633 410.93 0.647277 -0.374026 0.664181
14.1359 52.5802 411.162 0.690319 -0.252419 0.678044
13.838 52.6313 411.437 0.675512 -0.184168 0.713978
13.5965 52.6372 411.688 0.573844 -0.251463 0.779403
13.1017 52.7404 412.025 0.534323 -0.248522 0.80792
12.7833 52.8191 412.308 0.606761 -0.229241 0.761111
12.3846 52.8434 412.607 0.572269 -0.243386 0.783116
7.2588 56.9144 384.498 0.411816 0.188853 -0.891483
7.56099 56.8298 384.616 0.381836 0.135149 -0.914295
7.87731 56.7393 384.73 0.401955 0.162667 -0.901095
8.15018 56.664 384.855 0.486294 0.206416 -0.849065
8.3983 56.5954 384.984 0.466086 0.139371 -0.873693
8.66986 56.5233 385.107 0.460207 0.0990573 -0.882268
8.90661 56.4523 385.239 0.494053 0.116489 -0.861593
9.17049 56.3778 385.364 0.417611 0.077759 -0.905293
9.46005 56.3037 385.483 0.478967 0.11385 -0.870419
9.61485 56.2483 385.631 0.584529 0.221101 -0.780667
9.8515 56.1761 385.762 0.552938 0.22402 -0.802543
10.1038 56.1125 385.89 0.556799 0.178806 -0.811174
10.3123 56.0462 386.025 0.520625 0.110478 -0.846607
10.56 55.9775 386.153 0.557414 0.104985 -0.82357
10.7423 55.9131 386.294 0.533784 0.0836062 -0.841478
10.9993 55.84 386.419 0.504128 0.124407 -0.854621
11.2154 55.7758 386.553 0.560551 0.132069 -0.817521
11.4225 55.7207 386.689 0.566343 0.0388535 -0.823253
11.6127 55.6549 386.828 0.514557 0.0629753 -0.85514
11.8729 55.5813 386.951 0.685617 0.134959 -0.715343
11.942 55.5518 387.117 0.850431 0.0993287 -0.516624
12.0308 55.512 387.279 0.659069 0.126265 -0.741408
12.2934 55.4398 387.401 0.588123 0.114756 -0.800589
12.473 55.3817 387.542 0.538531 -0.0182427 -0.842408
12.7082 55.3144 387.67 0.562141 -0.0247727 -0.82667
12.8603 55.2604 387.817 0.588931 0.0516514 -0.806531
13.071 55.2004 387.951 0.67266 0.225782 -0.704664
13.1962 55.153 388.103 0.687533 0.211484 -0.694675
13.4037 55.0897 388.237 0.625036 0.166633 -0.762603
13.5762 55.0393 388.379 0.792206 0.18665 -0.581008
13.6636 55.003 388.54 0.900917 0.0182781 -0.433607
13.7298 54.9661 388.706 0.706911 -0.00651656 -0.707273
13.9561 54.9042 388.835 0.572998 0.0163866 -0.819393
14.1266 54.8506 388.977 0.773713 0.0052842 -0.633515
14.2031 54.8176 389.14 0.703171 0.0310946 -0.710341
14.408 54.7561 389.274 0.670786 0.0735487 -0.737995
14.5403 54.6942 389.422 0.765129 0.0357378 -0.642885
14.6854 54.6617 389.572 0.704208 0.00381432 -0.709984
14.8244 54.6143 389.72 0.804475 0.0749819 -0.589234
14.9184 54.5768 389.879 0.743882 0.0488499 -0.666523
15.1243 54.5213 390.012 0.632294 -0.0423618 -0.77357
15.2718 54.4608 390.157 0.783913 0.000164976 -0.62087
15.3483 54.4309 390.321 0.869228 0.0238233 -0.493838
15.4418 54.3951 390.48 0.838262 0.0218881 -0.544827
15.5223 54.3591 390.641 0.754719 0.146149 -0.639562
15.6829 54.3009 390.783 0.693842 0.174444 -0.698679
15.853 54.2524 390.924 0.751075 0.0946454 -0.653397
15.9681 54.2044 391.077 0.815579 -0.034428 -0.577621
16.0922 54.1691 391.229 0.766742 -0.102362 -0.633742
16.1883 54.1313 391.386 0.855553 0.0393035 -0.516222
16.2625 54.1037 391.55 0.931614 0.144751 -0.333381
16.3305 54.0685 391.714 0.896769 0.00665318 -0.442449
16.4393 54.0309 391.87 0.854227 -0.127078 -0.504131
16.544 53.9963 392.025 0.850207 -0.201349 -0.486422
16.6049 53.9559 392.19 0.771559 -0.238573 -0.589729
16.8037 53.8953 392.322 0.666412 -0.284113 -0.68933
16.8985 53.8522 392.479 0.660341 -0.290029 -0.6927
17.0333 53.8127 392.628 0.77837 -0.213115 -0.590527
17.0916 53.7861 392.795 0.903941 -0.141665 -0.403511
17.1573 53.7592 392.96 0.911522 -0.106684 -0.397174
17.2165 53.7253 393.126 0.891855 -0.073798 -0.44626
17.2964 53.6797 393.285 0.888471 -0.084735 -0.451042
17.3737 53.652 393.448 0.938774 -0.123031 -0.321819
17.4038 53.6293 393.621 0.959125 -0.160832 -0.232837
17.449 53.6036 393.791 0.844175 -0.192303 -0.500387
17.5959 53.56 393.936 0.835223 -0.168771 -0.523373
17.6339 53.5299 394.106 0.901052 -0.125665 -0.415106
17.7332 53.4954 394.263 0.854249 -0.0831832 -0.513166
17.7952 53.454 394.426 0.883075 -0.0521873 -0.46632
17.8797 53.4123 394.585 0.903778 -0.0677221 -0.42261
17.9306 53.3862 394.753 0.9359 -0.0111153 -0.352091
17.9832 53.3607 394.921 0.960193 0.0950175 -0.26268
18.0499 53.3338 395.086 0.932301 0.0612012 -0.356468
18.1275 53.3012 395.247 0.935218 0.0178211 -0.353625
18.1872 53.2747 395.413 0.954524 -0.0207868 -0.297409
18.2607 53.2486 395.577 0.963686 -0.123718 -0.236648
18.2674 53.2254 395.755 0.958353 -0.173956 -0.226492
18.3142 53.1969 395.924 0.953649 -0.139072 -0.266858
18.3512 53.1682 396.094 0.952083 -0.180478 -0.246913
18.396 53.1426 396.264 0.90048 -0.217806 -0.376426
18.4867 53.1089 396.422 0.879397 -0.200613 -0.431758
18.5238 53.0802 396.592 0.930542 -0.135771 -0.340086
18.5877 53.0533 396.758 0.973982 -0.115525 -0.19497
18.5851 53.0308 396.938 0.982033 -0.138043 -0.128669
18.6217 53.0052 397.109 0.986372 -0.161619 -0.030821
18.6015 52.9812 397.294 0.941064 -0.287365 -0.178382
18.6761 52.9538 397.457 0.856491 -0.306824 -0.41507
18.7618 52.9265 397.617 0.905473 -0.291492 -0.308465
18.7923 52.9065 397.79 0.938296 -0.296249 -0.178432
18.8004 52.8909 397.97 0.960184 -0.259987 -0.102241
18.8242 52.8674 398.144 0.951104 -0.288309 -0.11081
18.8504 52.8439 398.319 0.936784 -0.32795 -0.121998
18.8646 52.8246 398.496 0.934782 -0.342997 -0.0923912
18.8547 52.8025 398.678 0.930767 -0.364598 -0.0272217
18.8451 52.7899 398.862 0.937242 -0.330234 -0.111906
18.8882 52.7644 399.033 0.935747 -0.288062 -0.203465
18.9092 52.7496 399.209 0.938021 -0.282087 -0.201353
18.9524 52.721 399.379 0.941105 -0.287425 -0.178068
18.9462 52.7018 399.561 0.963018 -0.222855 -0.151437
18.976 52.6766 399.734 0.987884 -0.145724 -0.053381
19.0031 52.6575 399.909 0.963888 -0.263116 0.0411032
19.0264 52.6353 400.084 0.890167 -0.447736 0.0844706
18.9109 52.6447 400.297 0.858101 -0.51256 -0.0307394
18.9471 52.6198 400.469 0.91263 -0.379959 -0.15079
18.9693 52.5962 400.644 0.956613 -0.262493 0.12645
18.8926 52.5998 400.846 0.958745 -0.250844 0.133732
18.8938 52.5779 401.027 0.980013 -0.198847 0.00585327
18.9131 52.5667 401.206 0.966958 -0.254716 -0.0105921
18.884 52.5457 401.393 0.956868 -0.260856 -0.127903
18.9152 52.524 401.566 0.985285 -0.168305 0.0297813
18.9027 52.509 401.752 0.945939 -0.235143 0.223397
18.826 52.5105 401.955 0.928814 -0.353815 0.110087
18.8485 52.488 402.131 0.931993 -0.362381 0.00833906
18.8125 52.4767 402.322 0.942563 -0.331663 0.0396828
18.7889 52.467 402.512 0.958454 -0.226578 0.173289
18.7563 52.4469 402.699 0.917277 -0.246481 0.31281
18.7155 52.457 402.898 0.846745 -0.459255 0.268527
18.5887 52.4511 403.111 0.868945 -0.489697 0.0716352
18.6016 52.4388 403.291 0.968744 -0.241953 -0.054722
18.6179 52.4186 403.469 0.943828 -0.178954 0.277783
18.5169 52.4229 403.679 0.850894 -0.397804 0.343121
18.4384 52.4167 403.882 0.87501 -0.454347 0.167113
18.4382 52.4032 404.065 0.897364 -0.374373 0.23363
18.3669 52.4007 404.267 0.834367 -0.490108 0.252241
18.2882 52.3977 404.471 0.827485 -0.528906 0.188485
18.2272 52.3952 404.672 0.888354 -0.335475 0.313501
18.1292 52.4055 404.882 0.913021 -0.237592 0.331575
18.1266 52.3862 405.065 0.925467 -0.350167 0.144548
18.0763 52.3762 405.263 0.929625 -0.334972 0.153596
18.0131 52.3659 405.462 0.913035 -0.152271 0.378391
17.9214 52.3857 405.675 0.883794 -0.173256 0.434614
17.861 52.3821 405.876 0.829551 -0.400863 0.388786
17.7276 52.3859 406.094 0.790482 -0.529118 0.308502
17.6919 52.3765 406.287 0.810268 -0.4969 0.310735
17.5913 52.399 406.5 0.782903 -0.463355 0.41517
17.4313 52.404 406.728 0.839657 -0.464819 0.280925
17.417 52.3934 406.917 0.84403 -0.333613 0.4199
17.2204 52.4116 407.156 0.797375 -0.268052 0.540686
17.1164 52.4211 407.369 0.801512 -0.37115 0.468856
16.9502 52.4305 407.6 0.812467 -0.306291 0.496068
16.8196 52.4418 407.821 0.802409 -0.176375 0.570116
16.6581 52.4617 408.053 0.797779 -0.333009 0.502646
16.5704 52.4593 408.261 0.772081 -0.401499 0.492635
16.3485 52.4785 408.509 0.811019 -0.308827 0.496864
16.2733 52.4709 408.713 0.856827 -0.222288 0.465226
16.1562 52.4951 408.934 0.840009 -0.262726 0.47472
16.0347 52.5037 409.153 0.774246 -0.256972 0.578367
15.7715 52.5418 409.415 0.761555 -0.162737 0.627336
15.7062 52.558 409.622 0.619657 -0.236698 0.748331
15.1546 52.6369 409.964 0.563551 -0.35627 0.745307
15.0342 52.655 410.185 0.783839 -0.491009 0.38014
14.9631 52.6488 410.392 0.816429 -0.290894 0.498823
14.7945 52.6376 410.623 0.650147 -0.255287 0.715637
14.4564 52.7361 410.919 0.606088 -0.38191 0.697712
14.1537 52.7639 411.185 0.625278 -0.405055 0.667052
13.8581 52.8058 411.458 0.653105 -0.380779 0.654569
13.7538 52.8357 411.679 0.563516 -0.289807 0.773603
13.1191 52.9258 412.048 0.540856 -0.187411 0.819971
12.7099 52.9627 412.351 0.617944 -0.193899 0.761937
12.5142 53.0507 412.605 0.583003 -0.300664 0.75479
7.25625 57.104 384.524 0.369148 0.111295 -0.922683
7.56495 57.0153 384.641 0.397817 0.14035 -0.906666
7.83687 56.9431 384.765 0.424146 0.159262 -0.89148
8.11645 56.8601 384.888 0.443788 0.169741 -0.879909
8.41348 56.7801 385.006 0.441505 0.125656 -0.888417
8.68059 56.7015 385.131 0.469455 0.0855971 -0.878797
8.9154 56.6325 385.263 0.461677 0.0956566 -0.881876
9.20785 56.5526 385.381 0.440534 0.0759527 -0.894517
9.42472 56.4803 385.516 0.551736 0.150681 -0.820294
9.63044 56.4256 385.654 0.584059 0.170967 -0.793502
9.84829 56.3608 385.789 0.503565 0.0804359 -0.860205
10.0779 56.2751 385.918 0.501395 0.0878499 -0.860747
10.3279 56.2216 386.047 0.51322 0.0700748 -0.855391
10.5353 56.1498 386.183 0.540214 0.0953166 -0.836112
10.7701 56.0907 386.314 0.554741 0.0686014 -0.82919
10.9346 56.0375 386.459 0.508063 0.113789 -0.85377
11.2314 55.952 386.575 0.505409 0.111902 -0.855593
11.45 55.8909 386.708 0.570014 0.0119571 -0.821548
11.6289 55.8356 386.85 0.560802 0.00871811 -0.827904
11.8087 55.7837 386.992 0.679166 0.128029 -0.722733
11.9579 55.7285 387.14 0.852839 0.141323 -0.502686
12.0559 55.6959 387.3 0.622064 -0.0238137 -0.782604
12.31 55.6174 387.424 0.479642 -0.00309989 -0.877458
12.5504 55.5479 387.551 0.533133 -0.0349039 -0.845311
12.7301 55.4916 387.692 0.606325 -0.0468181 -0.793838
12.8804 55.4423 387.839 0.703647 0.0183751 -0.710312
12.9657 55.4063 388.001 0.659615 0.166125 -0.733015
13.2323 55.3339 388.122 0.651765 0.16823 -0.739528
13.3306 55.2921 388.28 0.639107 0.134923 -0.757191
13.5594 55.2254 388.409 0.709443 0.293473 -0.640753
13.6798 55.1805 388.563 0.864516 0.203563 -0.459536
13.7815 55.1501 388.722 0.704867 -0.00628682 -0.709312
13.9797 55.0857 388.857 0.583949 -0.021146 -0.811515
14.1385 55.0302 389.001 0.789412 0.0560982 -0.611295
14.219 54.9908 389.162 0.73264 0.079863 -0.675914
14.4241 54.9349 389.296 0.647093 0.0186167 -0.762183
14.5554 54.8923 389.447 0.734187 0.0204676 -0.678639
14.7012 54.8357 389.594 0.757865 -0.020726 -0.652082
14.7913 54.8034 389.754 0.779148 0.0218775 -0.626458
14.966 54.7408 389.893 0.668412 0.0318863 -0.743107
15.1401 54.6938 390.034 0.682607 -0.0209358 -0.730485
15.2284 54.6629 390.195 0.819358 0.0910611 -0.566005
15.3642 54.6109 390.343 0.868448 0.130876 -0.478194
15.4329 54.5786 390.508 0.899367 0.0641394 -0.432464
15.5117 54.5469 390.67 0.768124 0.0416533 -0.638945
15.7067 54.5048 390.807 0.63827 0.0316169 -0.769163
15.8697 54.4332 390.947 0.684658 0.0452443 -0.727459
16.0432 54.3872 391.088 0.780368 0.0327864 -0.62446
16.1238 54.3411 391.248 0.869776 -0.0389224 -0.491909
16.18 54.3147 391.415 0.914359 -0.00398992 -0.404885
16.2429 54.2877 391.581 0.873016 0.0313546 -0.486683
16.4082 54.245 391.723 0.810546 -0.108023 -0.575627
16.4913 54.1915 391.882 0.776884 -0.256028 -0.57524
16.5962 54.1388 392.035 0.797828 -0.248015 -0.549508
16.6993 54.1046 392.191 0.734257 -0.181868 -0.654057
16.8269 54.0684 392.343 0.715303 -0.0873323 -0.693336
16.9598 54.0336 392.492 0.803313 0.000583101 -0.595557
17.0495 53.9873 392.65 0.885649 0.0423475 -0.46242
17.108 53.9554 392.816 0.937307 0.00268164 -0.348496
17.1723 53.9199 392.98 0.92253 -0.0993252 -0.372925
17.2366 53.893 393.146 0.880041 -0.112327 -0.461422
17.3496 53.8486 393.298 0.878351 -0.106196 -0.466071
17.4037 53.8223 393.466 0.938119 -0.0748152 -0.338135
17.4739 53.7889 393.629 0.937974 -0.150285 -0.312441
17.5333 53.7606 393.795 0.84132 -0.234161 -0.487185
17.6196 53.7312 393.955 0.870995 -0.149845 -0.467882
17.6726 53.6943 394.122 0.912619 -0.115853 -0.392051
17.7492 53.6667 394.284 0.869481 -0.112067 -0.481086
17.8502 53.64 394.442 0.866923 -0.130976 -0.480926
17.9357 53.6118 394.602 0.914974 -0.145284 -0.376451
17.9637 53.5829 394.775 0.96359 -0.0767624 -0.256128
18.0005 53.5512 394.945 0.944061 -0.031408 -0.328272
18.0724 53.5229 395.109 0.911856 -0.0285615 -0.409515
18.144 53.4823 395.27 0.919789 -0.0453979 -0.389778
18.205 53.4463 395.434 0.922369 -0.0192426 -0.385831
18.2824 53.4186 395.597 0.958621 -0.0463546 -0.280885
18.3138 53.3948 395.769 0.972504 -0.132132 -0.191776
18.3512 53.3697 395.941 0.93799 -0.165094 -0.304825
18.429 53.3362 396.102 0.929726 -0.207857 -0.303981
18.4666 53.311 396.273 0.891659 -0.257817 -0.372122
18.5359 53.2762 396.436 0.900386 -0.244235 -0.360076
18.5745 53.2671 396.609 0.933397 -0.192358 -0.302933
18.6335 53.235 396.774 0.962522 -0.168121 -0.212808
18.6478 53.2113 396.951 0.964482 -0.219552 -0.14687
18.6847 53.1863 397.122 0.955229 -0.236728 -0.177476
18.7401 53.1697 397.291 0.933988 -0.264813 -0.239874
18.7773 53.1447 397.462 0.884951 -0.26941 -0.379842
18.8215 53.1043 397.629 0.935529 -0.209086 -0.284724
18.8399 53.0803 397.805 0.974959 -0.186214 -0.121569
18.856 53.0583 397.982 0.975627 -0.180644 -0.124578
18.8829 53.0351 398.156 0.97026 -0.194933 -0.143513
18.8911 53.0122 398.334 0.976973 -0.176971 -0.119186
18.9124 52.9881 398.509 0.977469 -0.186654 -0.098563
18.9405 52.9719 398.684 0.962954 -0.269599 0.00598245
18.9088 52.9619 398.873 0.958836 -0.274002 -0.0745412
18.943 52.9401 399.047 0.958811 -0.209766 -0.191522
18.9651 52.9183 399.22 0.958392 -0.206375 -0.197215
19.0025 52.893 399.393 0.961624 -0.253108 -0.105906
18.9839 52.8815 399.579 0.956667 -0.283103 -0.0681233
19.0057 52.8584 399.755 0.963406 -0.208874 -0.167989
19.0289 52.8378 399.93 0.98078 -0.130959 -0.144639
19.0471 52.8141 400.106 0.990896 -0.127784 0.0423785
19.0829 52.7893 400.28 0.939705 -0.320579 0.119094
19.0175 52.794 400.479 0.917611 -0.397376 -0.00905488
19.0008 52.773 400.662 0.957886 -0.24897 0.143068
18.9451 52.7693 400.86 0.94794 -0.267342 0.173026
18.9259 52.7575 401.046 0.957261 -0.283287 -0.0583071
18.9474 52.7334 401.222 0.975389 -0.219576 -0.020059
18.9319 52.7115 401.407 0.98158 -0.190802 -0.00979778
18.9376 52.7027 401.588 0.983287 -0.179793 -0.0286458
18.9236 52.6883 401.773 0.982625 -0.143825 0.117311
18.9308 52.6691 401.955 0.966259 -0.231807 0.11229
18.8787 52.6589 402.149 0.960833 -0.272615 0.0498128
18.8878 52.6413 402.329 0.952825 -0.261026 0.154886
18.8064 52.6457 402.533 0.947661 -0.278706 0.155763
18.8096 52.6277 402.714 0.968845 -0.220795 0.112198
18.786 52.6062 402.902 0.92647 -0.237178 0.292232
18.7116 52.6056 403.104 0.873045 -0.383881 0.300713
18.6193 52.6169 403.312 0.918115 -0.395079 0.0312539
18.6468 52.5926 403.488 0.978135 -0.201775 0.0503814
18.6523 52.5757 403.672 0.903875 -0.289253 0.315186
18.5373 52.596 403.886 0.883155 -0.39897 0.246699
18.493 52.5818 404.079 0.910223 -0.398546 0.112497
18.4922 52.559 404.261 0.869339 -0.437183 0.23048
18.4202 52.5573 404.463 0.83245 -0.419082 0.362488
18.2723 52.5757 404.689 0.856939 -0.35227 0.376247
18.2184 52.5673 404.886 0.895293 -0.387016 0.220609
18.1689 52.5581 405.081 0.927095 -0.340376 0.156968
18.1233 52.5568 405.279 0.919485 -0.214316 0.32957
17.9867 52.568 405.5 0.907981 -0.214461 0.359968
17.9422 52.5567 405.695 0.940536 -0.242966 0.2374
17.9279 52.536 405.881 0.908542 -0.286673 0.303923
17.8519 52.5326 406.086 0.862721 -0.337388 0.376671
17.7329 52.5371 406.302 0.887535 -0.284497 0.362412
17.6567 52.5321 406.506 0.853732 -0.225113 0.469539
17.5132 52.5484 406.732 0.847847 -0.348756 0.399405
17.4397 52.5575 406.936 0.817927 -0.354456 0.453162
17.2635 52.5812 407.171 0.818759 -0.328962 0.47055
17.2459 52.5642 407.359 0.768899 -0.388586 0.507735
16.9683 52.6207 407.624 0.754147 -0.320704 0.573071
16.8695 52.6129 407.833 0.846678 -0.238403 0.47571
16.7785 52.6154 408.045 0.814145 -0.361492 0.454413
16.6394 52.6171 408.269 0.729758 -0.404295 0.551361
16.4345 52.6734 408.515 0.742925 -0.406173 0.532058
16.3038 52.6676 408.736 0.844602 -0.326926 0.423989
16.1862 52.6721 408.953 0.855156 -0.180541 0.485916
16.0505 52.6718 409.175 0.753114 -0.175548 0.634037
15.7888 52.732 409.439 0.79468 -0.169316 0.582937
15.7222 52.7186 409.642 0.699341 -0.168097 0.694741
15.3769 52.7532 409.925 0.575105 -0.35781 0.73568
15.1039 52.8142 410.193 0.650765 -0.570881 0.500599
14.9794 52.8234 410.414 0.809639 -0.324044 0.489367
14.8139 52.8411 410.648 0.713528 -0.156559 0.682911
14.5556 52.8639 410.908 0.646187 -0.22677 0.72871
14.2799 52.8848 411.172 0.631315 -0.344108 0.695004
14.0534 52.9491 411.429 0.625733 -0.426054 0.653403
13.6954 52.9961 411.719 0.541226 -0.27025 0.796266
13.1378 53.1173 412.072 0.518169 -0.260975 0.814489
12.8798 53.1665 412.338 0.622295 -0.287659 0.728012
12.5919 53.186 412.618 0.639709 -0.191637 0.744344
7.24659 57.2834 384.552 0.379742 0.0846934 -0.921207
7.55587 57.2037 384.669 0.40693 0.131978 -0.903875
7.83698 57.1211 384.791 0.420858 0.10807 -0.900666
8.13127 57.0417 384.911 0.406857 0.100638 -0.907931
8.41558 56.96 385.032 0.418513 0.109151 -0.901628
