2.5805 23.1396 405.735 0.0156537 -0.799561 0.600381
2.40081 23.1346 405.727 0.0251185 -0.781331 0.623612
2.21494 23.1397 405.687 0.00390304 -0.755161 0.655527
2.03556 23.1338 405.682 0.0812205 -0.693476 0.715887
1.85955 23.1196 405.703 0.116381 -0.65499 0.746622
1.68202 23.1089 405.713 -0.0355162 -0.665385 0.745655
1.4942 23.119 405.657 -0.12597 -0.743224 0.657077
1.31658 23.1099 405.668 -0.183391 -0.688207 0.701953
1.12495 23.1259 405.589 -0.303404 -0.607268 0.734283
0.937623 23.1337 405.536 -0.342398 -0.724455 0.598271
0.742576 23.1571 405.436 -0.231383 -0.770111 0.594467
0.560443 23.1504 405.426 -0.129598 -0.781319 0.610529
0.369378 23.1729 405.337 -0.0925021 -0.783681 0.614237
0.19001 23.1626 405.346 -0.185138 -0.722776 0.665822
0.000866188 23.1715 405.277 -0.33071 -0.678198 0.656261
-0.196516 23.2009 405.174 -0.24673 -0.686084 0.684407
-0.38083 23.2025 405.145 -0.251654 -0.62207 0.741417
-0.569353 23.2121 405.09 -0.228384 -0.627109 0.744698
-0.756117 23.2212 405.055 -0.129899 -0.708239 0.69392
-0.944342 23.2268 404.997 -0.266705 -0.665624 0.697003
-1.12818 23.2288 404.966 -0.209181 -0.713407 0.6688
-1.31343 23.2287 404.932 -0.19267 -0.755631 0.62602
-1.49619 23.2272 404.916 -0.283921 -0.777373 0.561319
-1.68872 23.2439 404.841 -0.19757 -0.851277 0.4861
-1.89198 23.2803 404.701 -0.269701 -0.792878 0.546449
-2.07835 23.283 404.653 -0.332576 -0.716962 0.612666
-2.27213 23.2996 404.591 -0.202005 -0.802346 0.561635
-2.46043 23.3137 404.52 -0.244812 -0.800161 0.547549
-2.65583 23.3309 404.438 -0.388737 -0.751368 0.533226
-2.85196 23.3531 404.346 -0.384638 -0.743304 0.547315
-3.05875 23.3952 404.193 -0.369762 -0.706965 0.602891
-3.24762 23.4024 404.138 -0.305686 -0.754019 0.581388
-3.44769 23.4297 404.027 -0.278884 -0.760852 0.585942
-3.62917 23.4262 404.013 -0.350071 -0.738744 0.57594
-3.84191 23.4765 403.831 -0.297094 -0.771511 0.562588
-4.02481 23.4797 403.819 -0.36066 -0.74505 0.561092
-4.22294 23.4966 403.714 -0.540643 -0.677219 0.499078
-4.43297 23.5417 403.545 -0.494394 -0.747629 0.443424
-4.64435 23.5801 403.346 -0.338106 -0.820706 0.460572
-4.8375 23.6035 403.297 -0.266682 -0.815868 0.513069
-5.03964 23.6342 403.18 -0.312751 -0.770998 0.554751
-5.23001 23.6433 403.132 -0.487941 -0.671202 0.558034
-5.44209 23.6901 402.945 -0.578886 -0.643802 0.50041
-5.64458 23.716 402.816 -0.576413 -0.681547 0.450823
-5.86988 23.7905 402.576 -0.483216 -0.768916 0.418653
-6.07669 23.8277 402.435 -0.449193 -0.771314 0.450889
-6.27954 23.8572 402.31 -0.575807 -0.694997 0.430611
-6.50704 23.93 402.05 -0.586826 -0.725787 0.358983
-6.73252 23.9988 401.804 -0.678257 -0.636386 0.367397
-6.96461 24.0787 401.522 -0.721165 -0.590446 0.362346
-7.19785 24.16 401.236 -0.687131 -0.660672 0.302265
-7.44604 24.2677 400.895 -0.718211 -0.634425 0.285794
-7.69388 24.3733 400.539 -0.744786 -0.618138 0.251394
-7.97829 24.5403 399.936 -0.71099 -0.676434 0.192173
-8.22432 24.6425 399.652 -0.564212 -0.811547 0.151846
14.1164 25.3435 400.936 0.722148 -0.647862 0.242441
13.9495 25.2958 401.053 0.726834 -0.605329 0.324483
13.8086 25.2182 401.336 0.702314 -0.64194 0.307682
13.6517 25.132 401.551 0.660706 -0.691658 0.29168
13.4933 25.0821 401.711 0.669097 -0.674884 0.311191
13.3389 25.0085 401.92 0.672233 -0.66956 0.3159
13.1808 24.9505 402.092 0.670183 -0.665673 0.328229
11.8877 24.515 403.25 0.726594 -0.656576 0.20241
11.746 24.4118 403.55 0.760363 -0.557669 0.332947
11.5737 24.3789 403.623 0.582721 -0.608567 0.538593
10.5852 24.1397 404.258 0.676048 -0.67238 0.301436
10.4234 24.0841 404.405 0.574002 -0.711371 0.405553
10.2537 24.06 404.457 0.357417 -0.720666 0.594048
10.0776 24.0455 404.479 0.457383 -0.609795 0.647264
9.91889 23.994 404.629 0.604689 -0.539836 0.585601
9.75298 23.9525 404.728 0.449868 -0.632198 0.630828
9.58537 23.9185 404.811 0.266596 -0.729297 0.630121
9.41182 23.9001 404.848 0.319451 -0.739536 0.592484
9.24521 23.8678 404.942 0.518215 -0.69348 0.500538
9.08903 23.8039 405.105 0.435295 -0.716273 0.545409
8.91348 23.7894 405.127 0.260954 -0.684332 0.680876
8.742 23.7646 405.173 0.230134 -0.657205 0.717719
8.56512 23.7566 405.197 0.29479 -0.677159 0.674207
8.4038 23.7139 405.309 0.298085 -0.693117 0.656303
8.22894 23.6886 405.345 0.357742 -0.683619 0.636149
8.05733 23.6672 405.395 0.322504 -0.706275 0.630212
7.8877 23.6379 405.465 0.126354 -0.784546 0.60706
7.71285 23.6237 405.486 0.223085 -0.808788 0.544146
7.53891 23.607 405.517 0.324563 -0.742202 0.58634
7.36618 23.585 405.561 0.262657 -0.674032 0.690429
7.19106 23.57 405.585 0.156796 -0.656833 0.737554
7.01509 23.5566 405.603 0.135727 -0.649139 0.748463
6.83931 23.5431 405.622 0.137852 -0.62507 0.7683
6.66364 23.5289 405.643 0.170941 -0.609218 0.774359
6.49089 23.508 405.685 0.250539 -0.611164 0.750806
6.32144 23.4806 405.746 0.251467 -0.612076 0.749752
6.14578 23.4664 405.768 0.199801 -0.609459 0.767228
5.97301 23.4469 405.808 0.188231 -0.697849 0.691068
5.79768 23.4322 405.831 0.158468 -0.767425 0.621247
5.62215 23.418 405.852 0.0492833 -0.760826 0.647081
5.44421 23.409 405.857 0.038102 -0.782052 0.622047
5.26736 23.3977 405.869 0.136182 -0.751741 0.645244
5.09182 23.3835 405.89 0.14417 -0.686264 0.712922
4.91134 23.3773 405.876 0.102754 -0.634941 0.765697
4.73578 23.3632 405.896 -0.00876856 -0.648577 0.761098
4.55184 23.3671 405.861 -0.027286 -0.675787 0.736592
4.37197 23.364 405.855 0.0255802 -0.615575 0.787663
4.19641 23.3498 405.876 0.0870233 -0.613651 0.784767
4.02159 23.334 405.902 0.246407 -0.635939 0.731344
3.85166 23.3063 405.96 0.162107 -0.615283 0.771458
3.6677 23.3062 405.921 -0.0238632 -0.581167 0.813434
3.4893 23.3021 405.928 0.0146232 -0.593421 0.80476
3.30891 23.2984 405.92 0.0668958 -0.538965 0.839668
3.13258 23.2883 405.937 0.0724907 -0.485675 0.871128
2.95746 23.2701 405.962 -0.162013 -0.536308 0.828327
2.77366 23.2743 405.924 -0.227727 -0.683022 0.693989
2.58237 23.291 405.846 -0.0219168 -0.785821 0.618066
2.4063 23.277 405.867 -0.0240317 -0.752405 0.658262
2.22527 23.2748 405.85 -0.0922747 -0.749204 0.65588
2.04001 23.2793 405.811 0.029721 -0.7422 0.669519
1.86403 23.2652 405.832 0.12948 -0.659679 0.74031
1.68875 23.2505 405.856 0.108519 -0.626688 0.771677
0.752309 23.2934 405.597 -0.270536 -0.663656 0.697403
0.574924 23.2822 405.609 -0.155804 -0.629962 0.760837
0.387315 23.2952 405.559 -0.187286 -0.708859 0.680032
0.200023 23.3003 405.512 -0.207514 -0.707541 0.675518
0.00642184 23.3159 405.408 -0.36375 -0.606341 0.707132
-0.184841 23.3355 405.35 -0.312585 -0.709109 0.632025
-0.381359 23.3596 405.24 -0.226195 -0.737364 0.636498
-0.566166 23.3622 405.21 -0.121169 -0.717395 0.686049
-0.745103 23.3532 405.211 -0.154082 -0.741229 0.653329
-0.936077 23.3643 405.144 -0.208779 -0.706753 0.675952
-1.12212 23.371 405.096 -0.144637 -0.692895 0.706383
-1.30805 23.3771 405.072 -0.121594 -0.673938 0.728713
-1.49462 23.3821 405.03 -0.20336 -0.626296 0.752595
-1.68175 23.3874 404.981 -0.354332 -0.645141 0.676936
-1.87344 23.4022 404.911 -0.398007 -0.671522 0.625019
-2.07714 23.4393 404.766 -0.248263 -0.705924 0.663353
-2.25566 23.4304 404.786 -0.207948 -0.734703 0.645732
-2.44787 23.4429 404.697 -0.265683 -0.763995 0.587982
-2.63515 23.4498 404.662 -0.413989 -0.726256 0.548785
-2.8556 23.5169 404.42 -0.447613 -0.709024 0.544911
-3.03765 23.5125 404.409 -0.320848 -0.725628 0.608703
-3.23633 23.5388 404.301 -0.332105 -0.671685 0.662228
-3.42461 23.5457 404.255 -0.289955 -0.732254 0.616222
-3.62323 23.5694 404.131 -0.329844 -0.727612 0.601485
-3.81063 23.5768 404.111 -0.308644 -0.76345 0.567348
-4.0081 23.5997 404.009 -0.313296 -0.790712 0.525947
-4.21066 23.6318 403.88 -0.46875 -0.703586 0.534078
-4.41586 23.669 403.742 -0.522419 -0.687193 0.504821
-4.61944 23.7104 403.611 -0.411013 -0.76684 0.492975
-4.82103 23.7286 403.501 -0.330157 -0.792675 0.512507
-5.01287 23.747 403.409 -0.360549 -0.763419 0.535906
-5.21927 23.7808 403.269 -0.441787 -0.711961 0.545835
-5.42194 23.8117 403.146 -0.527105 -0.6705 0.522102
-5.63895 23.8723 402.953 -0.530621 -0.696201 0.483472
-5.83801 23.8924 402.851 -0.551814 -0.683001 0.478551
-6.05751 23.9517 402.626 -0.487325 -0.707385 0.511977
-6.25677 23.9758 402.534 -0.511857 -0.705704 0.489882
-6.46594 24.0164 402.373 -0.636328 -0.669856 0.382595
-6.71023 24.1188 402.025 -0.678813 -0.642046 0.356357
-6.94584 24.2052 401.723 -0.676329 -0.615987 0.403905
-7.16448 24.2613 401.518 -0.74074 -0.552991 0.381451
-7.4344 24.4065 401.035 -0.743427 -0.559426 0.36655
-7.64837 24.4524 400.823 -0.748672 -0.566588 0.344191
-7.89451 24.5547 400.47 -0.710219 -0.665422 0.229787
-8.16838 24.705 399.992 -0.596781 -0.786053 0.16116
13.8181 25.3137 401.571 0.721051 -0.63219 0.283586
13.658 25.2491 401.741 0.672457 -0.651247 0.351679
13.4994 25.1841 401.918 0.679272 -0.652832 0.335261
13.3498 25.1196 402.139 0.672605 -0.658488 0.337633
13.1888 25.0643 402.291 0.636795 -0.6303 0.444088
13.0233 25.0172 402.409 0.628267 -0.615558 0.475784
11.9057 24.6326 403.48 0.668954 -0.645131 0.369197
11.7414 24.5771 403.623 0.730677 -0.514244 0.449069
11.5884 24.5041 403.831 0.554733 -0.569048 0.607005
11.4138 24.4867 403.858 -0.142418 -0.588686 0.795718
11.2422 24.4636 403.913 0.573387 -0.649302 0.499634
10.5963 24.2613 404.452 0.688232 -0.577087 0.439667
10.4335 24.214 404.585 0.496834 -0.642861 0.582997
10.2637 24.1887 404.645 0.225818 -0.752923 0.618153
10.0883 24.1731 404.667 0.384732 -0.802751 0.455601
9.92772 24.1218 404.806 0.560543 -0.718882 0.411096
9.76775 24.0683 404.952 0.48752 -0.707327 0.511872
9.60096 24.0364 405.03 0.296256 -0.761885 0.575989
9.42465 24.0218 405.052 0.34675 -0.783971 0.51493
9.26327 23.9735 405.182 0.490743 -0.728444 0.478059
9.09028 23.955 405.221 0.334635 -0.664096 0.668577
8.91217 23.9437 405.229 0.218883 -0.617894 0.755181
8.74312 23.919 405.293 0.274481 -0.667213 0.69245
8.57207 23.8901 405.35 0.321228 -0.671367 0.667891
8.39895 23.8719 405.388 0.309096 -0.67319 0.67177
8.22427 23.8554 405.419 0.387344 -0.642156 0.661514
8.06868 23.7965 405.583 0.420086 -0.60223 0.678857
7.89306 23.7819 405.605 0.215215 -0.646596 0.731844
7.71849 23.7649 405.629 0.138124 -0.68035 0.719754
7.53975 23.7558 405.633 0.205401 -0.665287 0.717777
7.36937 23.7297 405.685 0.223381 -0.595225 0.771886
7.19379 23.7154 405.707 0.144538 -0.547607 0.824157
7.01797 23.7012 405.728 0.10229 -0.572445 0.813538
6.83923 23.6963 405.726 0.119054 -0.687239 0.716609
6.66523 23.6796 405.758 0.17382 -0.786204 0.593018
6.48954 23.6652 405.78 0.230728 -0.787201 0.571909
6.31684 23.6447 405.819 0.230502 -0.711131 0.6642
6.14279 23.6269 405.851 0.321898 -0.614875 0.719938
5.98246 23.5798 405.978 0.30979 -0.61789 0.722664
5.80697 23.5654 405.999 0.140603 -0.640868 0.754665
5.63111 23.5524 406.017 0.0894023 -0.642703 0.760881
5.45295 23.544 406.019 -0.021717 -0.621802 0.782873
5.26647 23.5533 405.965 0.0255716 -0.607677 0.793772
5.09094 23.5392 405.986 0.0647913 -0.614005 0.786638
4.9121 23.5321 405.985 0.121144 -0.64111 0.757827
4.74219 23.503 406.042 0.0344472 -0.674637 0.737345
4.55758 23.514 406.004 -0.106673 -0.691102 0.714842
4.37555 23.5105 405.981 0.0310543 -0.740062 0.671821
4.19807 23.5006 405.989 0.137199 -0.712258 0.688378
4.0234 23.4845 406.016 0.207432 -0.582987 0.785556
3.84745 23.4714 406.035 0.107095 -0.436142 0.893482
3.67176 23.4592 406.056 -0.0141306 -0.437136 0.899284
3.49111 23.457 406.047 -0.0497362 -0.580202 0.812953
3.30656 23.4587 406.004 0.0145451 -0.678874 0.734111
3.13085 23.4438 406.025 0.139259 -0.696178 0.704233
2.95531 23.4313 406.046 0.0664774 -0.673839 0.735881
2.7795 23.4175 406.067 -0.103199 -0.650227 0.752698
2.60015 23.4097 406.063 -0.0912232 -0.721798 0.686065
2.41591 23.4117 406.026 -0.0205714 -0.760153 0.649418
2.23529 23.407 406.015 -0.122091 -0.695461 0.708116
2.04807 23.418 405.963 -0.0950938 -0.693315 0.714333
1.86499 23.4186 405.937 0.081244 -0.704223 0.705315
1.68938 23.4043 405.959 0.233062 -0.643727 0.728902
0.749201 23.4557 405.678 -0.337755 -0.614474 0.712982
0.570523 23.4458 405.681 -0.0277147 -0.592178 0.805331
0.391193 23.4395 405.677 -0.223265 -0.44478 0.867366
0.199128 23.4527 405.598 -0.329518 -0.550149 0.767303
0.010461 23.4649 405.536 -0.230375 -0.665752 0.709719
-0.168478 23.4616 405.557 -0.30711 -0.692111 0.653197
-0.369162 23.4919 405.413 -0.272365 -0.75098 0.601536
-0.548559 23.484 405.415 -0.0653885 -0.788505 0.611542
-0.737257 23.494 405.358 -0.198968 -0.721873 0.662805
-0.928472 23.5079 405.283 -0.244175 -0.694057 0.677247
-1.11539 23.5173 405.244 -0.175809 -0.684709 0.707294
-1.3034 23.5243 405.197 -0.171223 -0.67313 0.719429
-1.48932 23.5265 405.15 -0.127438 -0.61934 0.774711
-1.66735 23.5161 405.166 -0.313431 -0.571297 0.758539
-1.87593 23.5628 404.996 -0.421077 -0.627934 0.654517
-2.05895 23.562 404.969 -0.217402 -0.709665 0.670158
-2.24908 23.572 404.916 -0.138908 -0.689888 0.710463
-2.43005 23.5684 404.903 -0.268647 -0.670754 0.691316
-2.63059 23.5986 404.789 -0.45418 -0.625974 0.633938
-2.82097 23.6094 404.723 -0.505118 -0.642762 0.575945
-3.04194 23.6781 404.484 -0.384408 -0.7104 0.589544
-3.2297 23.6838 404.437 -0.234527 -0.7711 0.591948
-3.4169 23.6882 404.393 -0.282683 -0.711935 0.642837
-3.60955 23.7037 404.325 -0.30308 -0.663276 0.684256
-3.80346 23.7219 404.257 -0.292491 -0.647713 0.703503
-3.99463 23.7325 404.184 -0.429817 -0.58321 0.689292
-4.19164 23.7505 404.071 -0.472982 -0.660847 0.582726
-4.39715 23.7925 403.944 -0.508682 -0.64329 0.572207
-4.60507 23.8315 403.791 -0.476335 -0.640457 0.602429
-4.8025 23.8551 403.676 -0.405897 -0.687115 0.602595
-5.00521 23.888 403.565 -0.417499 -0.682121 0.600337
-5.20204 23.9088 403.474 -0.443195 -0.705133 0.553503
-5.40759 23.945 403.334 -0.484154 -0.694802 0.531832
-5.60668 23.9699 403.24 -0.555305 -0.643407 0.526937
-5.83372 24.0426 402.96 -0.587569 -0.631937 0.50539
-6.04309 24.0859 402.823 -0.464505 -0.728441 0.503596
-6.24158 24.1085 402.732 -0.431627 -0.711706 0.554231
-6.44197 24.1325 402.596 -0.69489 -0.523033 0.493523
-6.68773 24.2392 402.266 -0.741499 -0.545431 0.390749
-6.92303 24.3244 401.946 -0.650809 -0.666302 0.36399
-7.15201 24.3989 401.683 -0.713788 -0.599198 0.362586
-7.39958 24.5072 401.375 -0.676988 -0.6652 0.314954
-7.62674 24.5751 401.059 -0.575617 -0.76048 0.300558
-7.84492 24.6295 400.869 -0.70547 -0.633414 0.317959
-8.08761 24.7255 400.536 -0.755965 -0.599584 0.262709
13.8296 25.4485 401.763 0.766864 -0.478492 0.427744
13.6712 25.3846 401.942 0.715378 -0.575481 0.396304
13.5173 25.3055 402.16 0.700178 -0.613037 0.365973
13.3573 25.2522 402.3 0.656196 -0.56861 0.496073
13.1883 25.2173 402.4 0.636797 -0.571866 0.517165
13.0339 25.1456 402.604 0.634365 -0.602865 0.483876
12.8678 25.1074 402.708 0.645105 -0.55702 0.523037
12.7015 25.0629 402.819 0.622919 -0.561029 0.545177
11.9013 24.7891 403.576 0.613701 -0.537724 0.578122
11.7539 24.6984 403.83 0.696111 -0.525888 0.488745
11.5785 24.6751 403.88 0.455705 -0.616606 0.641974
11.41 24.6425 403.932 0.357375 -0.575417 0.735648
11.2439 24.6079 404.038 0.738318 -0.433646 0.516564
10.6002 24.4132 404.592 0.670964 -0.526907 0.521705
10.4292 24.3654 404.665 0.561322 -0.542103 0.625334
10.2753 24.3133 404.839 0.43604 -0.650283 0.622094
10.1066 24.2811 404.917 0.402675 -0.709362 0.578497
9.93746 24.251 404.988 0.522866 -0.650574 0.550785
9.76844 24.2205 405.061 0.51849 -0.563903 0.642792
9.6025 24.1775 405.158 0.404151 -0.564697 0.719569
9.43599 24.1476 405.244 0.376824 -0.639002 0.670582
9.26209 24.1293 405.279 0.352159 -0.603918 0.715029
9.08952 24.105 405.319 0.255386 -0.509675 0.821589
8.91963 24.0772 405.394 0.301016 -0.63102 0.714985
8.75076 24.0512 405.454 0.288017 -0.713854 0.638325
8.57494 24.0366 405.477 0.31669 -0.700004 0.64008
8.41116 23.9951 405.585 0.286444 -0.724262 0.627212
8.23695 23.9783 405.614 0.329477 -0.736781 0.590422
8.06091 23.9633 405.637 0.418547 -0.62273 0.661079
7.89706 23.9255 405.734 0.259092 -0.528884 0.808179
7.721 23.9108 405.756 0.127053 -0.572033 0.810331
7.54564 23.8966 405.777 0.112793 -0.632025 0.766696
7.36494 23.8948 405.761 0.151556 -0.642848 0.750851
7.19097 23.8777 405.795 0.170796 -0.609449 0.77421
7.01656 23.8596 405.823 0.258228 -0.648624 0.715965
6.85581 23.8128 405.948 0.293621 -0.72141 0.62718
6.68548 23.7872 406.005 0.192664 -0.776257 0.600255
6.50997 23.773 406.027 0.095671 -0.80643 0.583539
6.32749 23.7751 405.996 0.108215 -0.812325 0.573078
6.15173 23.7609 406.017 0.294515 -0.772565 0.562499
5.97911 23.7411 406.058 0.305443 -0.648117 0.697603
5.80358 23.7269 406.079 0.139058 -0.501889 0.85368
5.62824 23.7127 406.1 0.0550489 -0.511104 0.857754
5.447 23.7102 406.082 -0.0473965 -0.556941 0.829199
5.27148 23.6966 406.102 0.0371263 -0.708426 0.704808
5.09585 23.6828 406.122 0.104813 -0.747567 0.655864
4.92011 23.6731 406.144 0.162963 -0.709838 0.685254
4.7448 23.6555 406.165 0.0690725 -0.700989 0.709819
4.56462 23.6532 406.155 -0.0412137 -0.685212 0.727177
4.38912 23.6364 406.175 -0.0090593 -0.736379 0.676509
4.20469 23.6409 406.134 -0.0265447 -0.773528 0.633206
4.01945 23.647 406.091 0.0330346 -0.779364 0.6257
3.84038 23.6402 406.088 0.105335 -0.745757 0.657838
3.66481 23.6259 406.11 0.162021 -0.712789 0.682408
3.49649 23.5969 406.179 0.0894882 -0.743771 0.662417
3.32175 23.5816 406.204 0.0499931 -0.787703 0.614023
3.14363 23.5714 406.208 0.0988183 -0.773509 0.626034
2.96582 23.5627 406.216 0.0420367 -0.722951 0.68962
2.78122 23.567 406.178 0.00891011 -0.664397 0.747326
2.60353 23.5571 406.184 -0.0410142 -0.628721 0.776549
2.42197 23.5553 406.167 -0.129114 -0.630085 0.765717
2.2345 23.5677 406.115 -0.134014 -0.655836 0.742913
2.05453 23.5605 406.107 -0.0781826 -0.745176 0.662269
1.8753 23.5516 406.1 0.0190441 -0.795133 0.606135
1.69517 23.544 406.094 0.109085 -0.733456 0.670926
0.769789 23.5732 405.914 -0.383079 -0.656085 0.650233
0.564664 23.6132 405.741 -0.141174 -0.785734 0.602239
0.386975 23.602 405.751 -0.0605645 -0.673053 0.73711
0.207337 23.5926 405.753 -0.206416 -0.566599 0.79772
0.0232163 23.6024 405.717 -0.161295 -0.668097 0.726382
-0.167718 23.6121 405.653 -0.230625 -0.698402 0.67753
-0.351138 23.6138 405.62 -0.281056 -0.707606 0.648307
-0.547541 23.638 405.519 -0.155129 -0.755703 0.636276
-0.727426 23.6311 405.517 -0.226574 -0.720044 0.655897
-0.920215 23.6464 405.425 -0.267824 -0.709139 0.652221
-1.11066 23.6588 405.374 -0.184821 -0.731084 0.656778
-1.29492 23.6643 405.338 -0.240753 -0.686904 0.685712
-1.49076 23.6859 405.24 -0.147313 -0.68157 0.716771
-1.67318 23.6846 405.229 -0.196201 -0.574778 0.79444
-1.85257 23.6756 405.23 -0.414228 -0.529602 0.740228
-2.06209 23.7238 405.05 -0.259893 -0.701729 0.663349
-2.24217 23.7166 405.063 -0.13853 -0.66434 0.734481
-2.43168 23.7282 404.987 -0.281043 -0.512443 0.811429
-2.61853 23.7286 404.952 -0.433355 -0.530803 0.728321
-2.82891 23.7761 404.769 -0.527708 -0.483761 0.698212
-3.01458 23.7824 404.731 -0.388435 -0.598684 0.700497
-3.2041 23.7935 404.685 -0.308887 -0.746585 0.589236
-3.41544 23.8433 404.502 -0.319608 -0.759885 0.566061
-3.60339 23.8496 404.457 -0.291638 -0.762889 0.577016
-3.80559 23.8742 404.326 -0.30493 -0.690026 0.656416
-3.99128 23.8827 404.299 -0.300485 -0.559734 0.772273
-4.18085 23.8955 404.248 -0.511066 -0.521201 0.683492
-4.3985 23.9526 404.032 -0.548738 -0.568083 0.613326
-4.59763 23.9809 403.941 -0.465674 -0.614626 0.636697
-4.79508 24.0025 403.823 -0.420223 -0.647272 0.635965
-4.99109 24.0206 403.742 -0.371451 -0.681531 0.630507
-5.18679 24.0395 403.657 -0.443562 -0.674328 0.590368
-5.39514 24.0809 403.5 -0.506104 -0.676064 0.535534
-5.61059 24.1346 403.304 -0.541968 -0.654549 0.527101
-5.80819 24.1486 403.214 -0.549624 -0.654717 0.518902
-6.01831 24.2003 403.057 -0.493872 -0.734618 0.465216
-6.23644 24.2565 402.827 -0.457247 -0.736574 0.498381
-6.43746 24.2775 402.721 -0.624362 -0.570011 0.534097
-6.65734 24.3437 402.514 -0.705456 -0.571937 0.418593
-6.88512 24.4161 402.236 -0.650188 -0.679695 0.339514
-7.12005 24.5022 401.957 -0.626955 -0.703623 0.334428
-7.34175 24.5642 401.747 -0.651599 -0.690043 0.315053
-7.58873 24.6683 401.358 -0.612068 -0.741039 0.276106
-7.8298 24.763 401.048 -0.624071 -0.725645 0.289782
-8.0734 24.861 400.709 -0.764617 -0.572047 0.296855
-8.33061 24.9818 400.297 -0.738839 -0.625783 0.250025
13.8287 25.6084 401.865 0.775204 -0.539663 0.328364
13.6854 25.4999 402.172 0.752484 -0.533639 0.386
13.5176 25.4581 402.279 0.670303 -0.500381 0.548008
13.3537 25.4159 402.403 0.656163 -0.553568 0.512848
13.2017 25.33 402.628 0.649271 -0.612514 0.450859
13.034 25.2958 402.719 0.584509 -0.636156 0.503641
12.8696 25.2509 402.84 0.599049 -0.668261 0.441099
12.7172 25.1697 403.063 0.650042 -0.682678 0.33376
11.9113 24.9214 403.754 0.629052 -0.604743 0.488446
11.7536 24.8567 403.937 0.651707 -0.602632 0.460556
11.5903 24.8111 404.071 0.361012 -0.693 0.624036
11.4173 24.7901 404.092 0.364755 -0.689105 0.626169
11.2469 24.7615 404.173 0.665415 -0.619001 0.417205
10.5971 24.5649 404.679 0.62142 -0.585156 0.52099
10.4415 24.4968 404.859 0.609411 -0.562324 0.558937
10.2738 24.4643 404.942 0.526508 -0.521084 0.671759
10.1054 24.4369 405.013 0.418845 -0.417216 0.806536
9.93629 24.4042 405.081 0.442208 -0.453229 0.773974
9.7701 24.3691 405.18 0.487831 -0.516788 0.703527
9.60237 24.3297 405.265 0.472753 -0.594248 0.650672
9.43615 24.2994 405.353 0.322185 -0.638237 0.699179
9.26097 24.2854 405.374 0.218795 -0.584315 0.781476
9.08745 24.2651 405.416 0.406175 -0.559786 0.722262
8.92665 24.2164 405.545 0.422201 -0.562081 0.711204
8.75328 24.1971 405.582 0.291164 -0.571024 0.767564
8.58456 24.1648 405.654 0.353269 -0.641778 0.680678
8.41175 24.1438 405.703 0.335517 -0.65941 0.67276
8.24206 24.1199 405.755 0.197888 -0.653229 0.730844
8.06622 24.1056 405.777 0.264728 -0.66005 0.703031
7.89284 24.0862 405.814 0.288298 -0.584032 0.758809
7.7194 24.0677 405.849 0.205576 -0.55902 0.803266
7.548 24.0442 405.899 0.13174 -0.641697 0.755559
7.3726 24.0299 405.921 0.105698 -0.767068 0.632799
7.19766 24.0157 405.942 0.21805 -0.806944 0.548904
7.02913 23.9849 406.016 0.352491 -0.751827 0.557231
6.85673 23.9639 406.059 0.371825 -0.647911 0.664799
6.68424 23.9432 406.101 0.259004 -0.53914 0.801402
6.51249 23.9209 406.148 0.113439 -0.554205 0.824614
6.3378 23.9051 406.174 0.0781261 -0.639447 0.764855
6.1624 23.8909 406.195 0.0974417 -0.68396 0.722982
5.97946 23.8935 406.163 0.0965738 -0.666223 0.739473
5.80381 23.8795 406.184 0.144276 -0.62433 0.767721
5.62874 23.8638 406.206 0.116104 -0.656561 0.745283
5.45531 23.8393 406.238 0.168387 -0.726998 0.665673
5.28638 23.8144 406.304 0.107958 -0.759049 0.64202
5.10164 23.8239 406.264 0.0482217 -0.744691 0.665665
4.92602 23.811 406.285 0.138792 -0.685818 0.714416
4.75059 23.7968 406.306 0.0433076 -0.666506 0.744241
4.56889 23.7951 406.284 0.039701 -0.665296 0.745523
4.3932 23.7814 406.303 0.0582156 -0.645242 0.761757
4.2178 23.7672 406.325 -0.0256644 -0.693883 0.719631
4.04219 23.7533 406.345 -0.023227 -0.782002 0.622844
3.86038 23.7523 406.324 0.0575428 -0.827633 0.558312
3.68501 23.7381 406.345 0.18525 -0.834271 0.519302
3.50966 23.724 406.366 0.161471 -0.7954 0.58418
3.32958 23.7192 406.358 0.0232596 -0.732323 0.680561
3.14654 23.7219 406.331 0.00783682 -0.727793 0.685752
2.96714 23.7138 406.327 -0.0411893 -0.735094 0.676713
2.7854 23.7118 406.3 -0.0324785 -0.705199 0.708265
2.60716 23.7012 406.306 -0.0301471 -0.669303 0.742377
2.42226 23.7091 406.27 -0.0944892 -0.629809 0.770982
2.24675 23.6951 406.291 0.0019743 -0.645496 0.763761
2.0715 23.681 406.312 0.0055332 -0.722839 0.690994
1.88733 23.6835 406.28 -0.0918915 -0.74628 0.659259
1.69881 23.695 406.218 -0.0307368 -0.756946 0.652754
1.51978 23.6927 406.22 -0.0712025 -0.631868 0.771798
0.776676 23.7107 406.05 -0.278435 -0.685789 0.672435
0.591638 23.7154 406.004 -0.321837 -0.725107 0.608802
0.391398 23.7478 405.883 -0.149594 -0.812109 0.564004
0.205242 23.7595 405.83 -0.0599312 -0.763792 0.642674
0.0278651 23.7461 405.848 -0.0972248 -0.666991 0.738695
-0.153724 23.741 405.833 -0.20647 -0.683782 0.699866
-0.34649 23.7595 405.75 -0.250632 -0.691028 0.677985
-0.528984 23.7579 405.731 -0.205967 -0.694874 0.689005
-0.719225 23.7694 405.658 -0.233155 -0.712527 0.661774
-0.909472 23.7844 405.599 -0.253503 -0.735502 0.628309
-1.09759 23.7953 405.556 -0.22745 -0.748329 0.623113
-1.29079 23.8143 405.465 -0.262181 -0.704272 0.659744
-1.47491 23.8128 405.436 -0.259912 -0.702903 0.662097
-1.67355 23.8417 405.325 -0.170901 -0.715242 0.677659
-1.86019 23.8461 405.279 -0.23703 -0.64057 0.730402
-2.03926 23.8388 405.293 -0.345725 -0.650997 0.675779
-2.24637 23.879 405.123 -0.278406 -0.690693 0.667408
-2.43178 23.8813 405.089 -0.2047 -0.630576 0.748647
-2.61836 23.8924 405.052 -0.437847 -0.581065 0.686042
-2.82477 23.936 404.896 -0.441635 -0.626842 0.641894
-3.01546 23.946 404.833 -0.20824 -0.633573 0.745132
-3.20248 23.9475 404.792 -0.334745 -0.525477 0.782189
-3.38603 23.9461 404.772 -0.365999 -0.64462 0.6712
-3.5835 23.97 404.669 -0.387224 -0.741948 0.547331
-3.79042 24.0201 404.524 -0.390156 -0.763857 0.514101
-3.99605 24.0513 404.368 -0.212373 -0.799511 0.561854
-4.17747 24.0441 404.363 -0.431862 -0.595488 0.677414
-4.38353 24.0821 404.217 -0.534488 -0.589266 0.605878
-4.58781 24.1176 404.096 -0.413166 -0.722557 0.554261
-4.78416 24.1404 403.976 -0.370685 -0.733462 0.56976
-4.98181 24.1621 403.894 -0.325127 -0.744098 0.583618
-5.17774 24.1812 403.805 -0.409725 -0.655097 0.634802
-5.37288 24.1961 403.72 -0.538771 -0.594245 0.597159
-5.5828 24.2436 403.565 -0.541074 -0.639454 0.546203
-5.79812 24.303 403.37 -0.455801 -0.724168 0.517519
-5.99439 24.3175 403.279 -0.56061 -0.635213 0.531245
-6.21028 24.3689 403.073 -0.570731 -0.640926 0.513303
-6.4249 24.4268 402.9 -0.503932 -0.70103 0.504588
-6.62584 24.4471 402.786 -0.641629 -0.604262 0.47242
-6.85919 24.5304 402.495 -0.693074 -0.587021 0.418394
-7.09207 24.6143 402.255 -0.662188 -0.626678 0.410831
-7.32028 24.686 401.963 -0.695714 -0.581247 0.422058
-7.5352 24.7346 401.756 -0.713771 -0.593747 0.371478
-7.77944 24.8352 401.423 -0.69209 -0.64357 0.326847
-8.0181 24.925 401.111 -0.690966 -0.670291 0.270695
-8.27598 25.0475 400.695 -0.733353 -0.633858 0.245801
13.8508 25.6949 402.166 0.738193 -0.585283 0.335432
13.6775 25.6712 402.223 0.680952 -0.562935 0.468411
13.52 25.6064 402.404 0.691463 -0.54174 0.477909
13.3705 25.5212 402.65 0.69799 -0.569333 0.434361
13.2023 25.4847 402.741 0.64937 -0.577396 0.494906
13.0436 25.4171 402.917 0.631002 -0.629704 0.453111
12.8919 25.3508 403.127 0.648118 -0.680377 0.342097
12.729 25.2936 403.268 0.670495 -0.643691 0.368915
12.5683 25.2372 403.418 0.686138 -0.55403 0.471451
12.4108 25.1801 403.585 0.715292 -0.527188 0.458728
12.2491 25.1258 403.726 0.596685 -0.508261 0.620998
12.0781 25.0965 403.782 0.463894 -0.538273 0.703608
11.9191 25.0425 403.946 0.63415 -0.622581 0.458526
11.7627 24.9801 404.123 0.61105 -0.632692 0.47573
11.5927 24.9493 404.193 0.3711 -0.596157 0.711956
11.4145 24.9314 404.228 0.480029 -0.662072 0.575528
11.2748 24.849 404.466 0.551487 -0.752198 0.360639
11.0979 24.8281 404.514 0.627655 -0.680849 0.377484
10.9336 24.788 404.635 0.571618 -0.438214 0.693701
10.7645 24.7594 404.701 0.390586 -0.423771 0.817228
10.6067 24.6938 404.861 0.604115 -0.562811 0.564171
10.44 24.6565 404.953 0.550888 -0.492299 0.673917
10.2696 24.6276 405.016 0.402152 -0.391327 0.82773
10.0989 24.6035 405.075 0.460687 -0.331613 0.823286
9.93737 24.5544 405.2 0.523221 -0.382639 0.761464
9.77067 24.522 405.291 0.550707 -0.567975 0.611659
9.61323 24.4615 405.453 0.458667 -0.658959 0.596152
9.43823 24.4471 405.476 0.228861 -0.646993 0.72734
9.2633 24.4328 405.497 0.233465 -0.6138 0.754151
9.09305 24.4061 405.567 0.409858 -0.592944 0.693134
8.92251 24.3791 405.619 0.404739 -0.501247 0.764812
8.75171 24.3533 405.677 0.406918 -0.487859 0.772277
8.5885 24.3096 405.789 0.380658 -0.572934 0.725841
8.41415 24.2923 405.823 0.303086 -0.582511 0.754201
8.24657 24.2625 405.893 0.225311 -0.604232 0.764289
8.06756 24.2547 405.893 0.1666 -0.676216 0.717618
7.89567 24.2334 405.938 0.232458 -0.70807 0.666784
7.72227 24.213 405.978 0.288621 -0.692759 0.660896
7.55519 24.1819 406.053 0.316792 -0.710249 0.628641
7.38774 24.1488 406.134 0.215918 -0.729077 0.649482
7.21232 24.1345 406.156 0.171062 -0.734879 0.65627
7.03316 24.1291 406.148 0.19911 -0.718942 0.665941
6.85768 24.1149 406.17 0.203895 -0.700643 0.683759
6.68301 24.0987 406.197 0.249276 -0.672335 0.697013
6.51213 24.0752 406.248 0.221336 -0.611988 0.759264
6.33606 24.062 406.266 0.145758 -0.602532 0.784672
6.16079 24.0478 406.287 0.0700556 -0.616184 0.78448
5.98545 24.0337 406.308 0.042484 -0.668227 0.742743
5.80698 24.0259 406.309 0.182053 -0.705951 0.684463
5.63929 23.9955 406.381 0.229021 -0.701961 0.674388
5.46342 23.9835 406.402 0.218662 -0.691107 0.688882
5.28818 23.9694 406.423 0.0790857 -0.63529 0.768213
5.10907 23.9633 406.418 -0.0510226 -0.585613 0.808983
4.92675 23.9623 406.391 0.10322 -0.584014 0.805154
4.75429 23.9418 406.432 0.0381883 -0.574303 0.817751
4.57127 23.944 406.401 0.0104951 -0.628906 0.77741
4.3958 23.9298 406.422 0.131535 -0.675069 0.725934
4.21944 23.9173 406.437 0.133738 -0.572207 0.809131
4.044 23.903 406.458 0.0657233 -0.456162 0.887466
3.86716 23.8925 406.47 0.0969978 -0.53606 0.838589
3.69421 23.8724 406.51 0.0969402 -0.615889 0.781846
3.5115 23.8726 406.478 0.0290458 -0.606022 0.794917
3.33586 23.8584 406.498 0.0111327 -0.614695 0.788687
3.15784 23.8516 406.504 0.020989 -0.659802 0.751147
2.98168 23.8375 406.525 -0.0970795 -0.669981 0.736003
2.79055 23.8589 406.435 -0.0869876 -0.702096 0.706749
2.61353 23.8511 406.457 -0.0736026 -0.7245 0.685333
2.42461 23.86 406.386 -0.0730303 -0.683282 0.726493
2.24694 23.8494 406.392 0.121185 -0.633754 0.763983
2.07128 23.8363 406.413 0.0505376 -0.585611 0.809015
1.89381 23.8254 406.422 -0.101591 -0.591377 0.79997
1.71354 23.8205 406.412 -0.224253 -0.637897 0.736748
1.51501 23.8528 406.287 -0.224589 -0.649342 0.726578
0.784939 23.8504 406.198 -0.185815 -0.766512 0.614762
0.592774 23.868 406.114 -0.256826 -0.669049 0.697434
0.415314 23.8604 406.134 -0.275836 -0.722225 0.634276
0.220024 23.882 406.026 -0.187482 -0.792999 0.579658
0.0315814 23.8889 405.967 -0.0451077 -0.723041 0.689331
-0.149049 23.886 405.959 -0.198518 -0.566703 0.799649
-0.339072 23.9019 405.898 -0.275529 -0.592996 0.756597
-0.53038 23.9165 405.82 -0.180741 -0.647609 0.740227
-0.70914 23.9076 405.825 -0.200366 -0.665468 0.719031
-0.897679 23.9194 405.776 -0.251967 -0.699593 0.668642
-1.08919 23.9332 405.696 -0.29816 -0.688759 0.660842
-1.28025 23.9475 405.626 -0.265172 -0.703628 0.659235
-1.46948 23.956 405.554 -0.266378 -0.703527 0.658857
-1.65902 23.9704 405.512 -0.240774 -0.762153 0.600958
-1.84477 23.9726 405.465 -0.153064 -0.80817 0.568712
-2.04109 23.9961 405.376 -0.301797 -0.715629 0.629916
-2.22704 24.0018 405.326 -0.360978 -0.672096 0.646515
-2.42573 24.0291 405.223 -0.166409 -0.776908 0.607225
-2.60403 24.024 405.235 -0.341024 -0.729059 0.593443
-2.8106 24.0608 405.074 -0.455862 -0.708818 0.538299
-3.01339 24.0955 404.94 -0.255511 -0.8059 0.534078
-3.20222 24.1036 404.897 -0.140066 -0.739463 0.658465
-3.38723 24.1046 404.855 -0.199527 -0.604139 0.771496
-3.5708 24.0991 404.839 -0.395848 -0.593674 0.700611
-3.76791 24.1276 404.745 -0.446839 -0.705974 0.549487
-3.96311 24.1449 404.637 -0.377558 -0.812385 0.444389
-4.18198 24.2098 404.432 -0.332453 -0.800086 0.499337
-4.36771 24.2088 404.428 -0.414959 -0.692398 0.59025
-4.56866 24.2461 404.268 -0.41563 -0.726098 0.547753
-4.76318 24.2551 404.202 -0.372075 -0.741262 0.558651
-4.96878 24.2964 404.066 -0.409623 -0.709424 0.573521
-5.1704 24.3256 403.938 -0.395217 -0.715472 0.57611
-5.37322 24.3604 403.817 -0.507136 -0.533913 0.676572
-5.58102 24.399 403.675 -0.545168 -0.461417 0.699919
-5.76831 24.4015 403.627 -0.559315 -0.569231 0.602613
-5.99318 24.4691 403.337 -0.550269 -0.647441 0.527281
-6.19614 24.4957 403.254 -0.543693 -0.659548 0.519032
-6.40984 24.5524 403.075 -0.536391 -0.6517 0.536258
-6.61917 24.5909 402.918 -0.65111 -0.520055 0.552809
-6.84681 24.6675 402.66 -0.710104 -0.519856 0.474872
-7.07317 24.7385 402.416 -0.722816 -0.518604 0.456713
-7.30327 24.8131 402.093 -0.694364 -0.537 0.47905
-7.52489 24.8691 401.916 -0.680617 -0.612879 0.401421
-7.77005 24.9784 401.569 -0.677688 -0.621854 0.392474
-7.96837 24.9984 401.482 -0.742203 -0.565961 0.358919
-8.2547 25.1706 400.907 -0.783695 -0.52872 0.326003
14.3171 26.0648 401.674 0.739767 -0.584915 0.332595
14.1618 25.9806 401.905 0.717215 -0.605492 0.344938
14.0081 25.9248 402.073 0.737522 -0.56834 0.364762
13.8456 25.8623 402.244 0.710428 -0.530732 0.462186
13.6878 25.7937 402.424 0.672815 -0.557985 0.485771
13.534 25.7216 402.633 0.711654 -0.554938 0.430805
13.364 25.6894 402.71 0.699773 -0.4938 0.516216
13.2126 25.6097 402.938 0.714608 -0.481307 0.50762
13.0521 25.5457 403.105 0.745553 -0.506346 0.433318
12.9032 25.4836 403.315 0.689174 -0.516395 0.508307
12.7305 25.4447 403.388 0.627566 -0.517068 0.582067
12.5711 25.3899 403.544 0.694544 -0.510659 0.50679
12.4125 25.3255 403.707 0.65505 -0.51407 0.553753
12.2442 25.2901 403.804 0.585199 -0.455011 0.671198
12.0867 25.2311 403.967 0.654621 -0.487865 0.577459
11.9298 25.1658 404.143 0.65332 -0.553167 0.516893
11.7603 25.1377 404.214 0.513618 -0.478138 0.712447
11.5896 25.1106 404.277 0.525671 -0.426773 0.735891
11.4384 25.0329 404.498 0.671466 -0.587178 0.452057
11.2777 24.9796 404.641 0.544267 -0.678204 0.493774
11.1057 24.9588 404.684 0.325973 -0.627977 0.706673
10.9297 24.9441 404.707 0.493324 -0.59893 0.630804
10.7741 24.8824 404.883 0.585789 -0.589736 0.555934
10.6061 24.85 404.963 0.509753 -0.592099 0.624156
10.4345 24.8262 405.021 0.409449 -0.553157 0.725513
10.266 24.7945 405.099 0.352924 -0.497867 0.792195
10.0927 24.7707 405.136 0.506859 -0.539265 0.672523
9.93451 24.7127 405.291 0.671755 -0.481684 0.562784
9.78389 24.6396 405.497 0.623315 -0.489111 0.610122
9.6116 24.6179 405.548 0.394988 -0.534643 0.747089
9.43882 24.5978 405.587 0.18671 -0.478074 0.858245
9.26538 24.5781 405.618 0.260269 -0.523775 0.811123
9.09281 24.5571 405.666 0.303828 -0.525885 0.794439
8.91873 24.5365 405.697 0.383965 -0.539068 0.749651
8.75702 24.4945 405.822 0.478086 -0.571895 0.666611
8.58691 24.4698 405.887 0.375641 -0.54587 0.748946
8.41554 24.4435 405.936 0.315875 -0.560203 0.765764
8.24525 24.4171 405.993 0.314409 -0.604972 0.731543
8.07869 24.3828 406.077 0.231718 -0.644669 0.728498
7.90329 24.3682 406.099 0.224535 -0.702124 0.675726
7.73042 24.347 406.143 0.327356 -0.678372 0.657761
7.56324 24.3164 406.216 0.328533 -0.644749 0.690192
7.38426 24.3094 406.215 0.228534 -0.563227 0.79407
7.21234 24.2877 406.259 0.154547 -0.556974 0.816024
7.03831 24.267 406.291 0.175649 -0.652524 0.737129
6.86889 24.243 406.353 0.171724 -0.70053 0.692654
6.69054 24.236 406.351 0.158295 -0.702809 0.693544
6.51502 24.2217 406.373 0.192194 -0.710336 0.677114
6.34154 24.2033 406.407 0.153284 -0.728945 0.66719
6.16632 24.1889 406.429 0.140479 -0.715495 0.684348
5.99094 24.1749 406.45 0.114229 -0.699339 0.705604
5.81575 24.1605 406.471 0.18441 -0.720553 0.668428
5.64078 24.1454 406.495 0.208333 -0.703522 0.679451
5.46539 24.1313 406.517 0.117006 -0.63722 0.761748
5.28775 24.123 406.522 0.00830121 -0.586967 0.809568
5.1045 24.125 406.489 -0.052212 -0.549238 0.834033
4.92744 24.1129 406.497 0.0881532 -0.584534 0.806566
4.75202 24.0999 406.518 0.110604 -0.547962 0.829159
4.57804 24.0823 406.549 0.082353 -0.554406 0.828162
4.40272 24.0693 406.57 -0.00697365 -0.643718 0.765231
4.21188 24.0877 406.488 -0.00288667 -0.650293 0.759678
4.03679 24.0729 406.512 0.161458 -0.577307 0.800405
3.86462 24.0514 406.553 0.199575 -0.535757 0.820448
3.69061 24.0347 406.584 0.0800093 -0.566226 0.820358
3.512 24.0273 406.584 0.0383804 -0.550964 0.833646
3.33639 24.0131 406.605 0.0732804 -0.553386 0.829695
3.15659 24.0112 406.595 0.0392915 -0.553829 0.831703
2.97711 24.0027 406.591 -0.0608242 -0.554022 0.830277
2.80028 23.9913 406.603 -0.0601527 -0.599793 0.797891
2.62083 23.9895 406.606 -0.150453 -0.611171 0.777067
2.43014 24.0028 406.519 -0.144219 -0.65012 0.746019
2.25282 23.9921 406.53 0.0553782 -0.724669 0.686869
2.0708 23.9903 406.512 0.0649682 -0.69097 0.719958
1.89491 23.9778 406.528 -0.0166763 -0.600823 0.799208
1.7095 23.9803 406.479 -0.22183 -0.525845 0.821145
1.52905 23.9788 406.477 -0.183713 -0.667583 0.721514
1.34469 23.9827 406.441 -0.151111 -0.725145 0.671811
0.600674 24.0039 406.26 -0.17313 -0.611321 0.772213
0.420108 23.9997 406.26 -0.213284 -0.532847 0.818892
0.22964 24.0202 406.173 -0.36555 -0.599812 0.711758
0.0355927 24.0394 406.089 -0.231878 -0.68116 0.694445
-0.153919 24.0542 406.024 -0.148486 -0.583283 0.798582
-0.333124 24.0438 406.033 -0.245899 -0.487519 0.837771
-0.521728 24.0521 405.959 -0.157359 -0.607545 0.778542
-0.701968 24.0485 405.966 -0.128384 -0.662109 0.738328
-0.893912 24.0663 405.89 -0.268362 -0.615903 0.740706
-1.07817 24.0674 405.858 -0.305465 -0.627643 0.716069
-1.27232 24.0855 405.758 -0.270873 -0.682463 0.678875
-1.45649 24.0898 405.743 -0.179075 -0.701298 0.69001
-1.64327 24.096 405.712 -0.208888 -0.685546 0.697418
-1.83205 24.1072 405.64 -0.28774 -0.690461 0.663679
-2.0249 24.1235 405.572 -0.32927 -0.72183 0.608723
-2.22251 24.1466 405.44 -0.252983 -0.752857 0.607623
-2.40349 24.1388 405.459 -0.185747 -0.752256 0.632146
-2.59825 24.1618 405.358 -0.317849 -0.680636 0.660081
-2.7873 24.1734 405.307 -0.441537 -0.644879 0.62384
-2.98616 24.2016 405.198 -0.403816 -0.730058 0.551314
-3.18965 24.2356 405.045 -0.278297 -0.781486 0.558417
-3.38199 24.2472 404.985 -0.134976 -0.75705 0.639263
-3.56585 24.2531 404.963 -0.180346 -0.636704 0.749723
-3.74992 24.2546 404.943 -0.338432 -0.599853 0.72501
-3.94559 24.2721 404.854 -0.504108 -0.642529 0.57709
-4.15177 24.3118 404.704 -0.444087 -0.75732 0.478803
-4.36139 24.346 404.528 -0.319164 -0.797338 0.512237
-4.54701 24.3587 404.499 -0.426052 -0.685517 0.590378
-4.76269 24.4189 404.304 -0.408064 -0.703728 0.581593
-4.9496 24.4191 404.267 -0.421458 -0.672761 0.608083
-5.15442 24.4549 404.129 -0.54541 -0.633884 0.548379
-5.37786 24.524 403.885 -0.492382 -0.707255 0.507298
-5.57183 24.5402 403.816 -0.386391 -0.687593 0.61475
-5.77402 24.5692 403.679 -0.484165 -0.563546 0.669328
-5.96036 24.5695 403.661 -0.549233 -0.616441 0.564219
-6.18432 24.6476 403.426 -0.541653 -0.679514 0.494847
-6.39495 24.6846 403.254 -0.590918 -0.628391 0.505905
-6.62017 24.7555 403.007 -0.573748 -0.642012 0.508561
-6.81284 24.7636 402.945 -0.687328 -0.57077 0.449224
-7.07528 24.9009 402.492 -0.748913 -0.449021 0.487349
-7.27505 24.9186 402.39 -0.626215 -0.567629 0.534465
-7.49501 24.992 402.215 -0.676943 -0.600877 0.425083
-7.72902 25.0664 401.892 -0.677233 -0.614418 0.404778
-7.96757 25.1567 401.58 -0.782919 -0.44026 0.439554
-8.21577 25.2631 401.217 -0.826526 -0.40113 0.394903
14.3296 26.1801 401.898 0.729349 -0.606687 0.316197
14.1717 26.1129 402.083 0.715485 -0.565817 0.409795
14.0091 26.0503 402.23 0.702296 -0.535967 0.46853
13.8539 25.9901 402.425 0.698149 -0.570389 0.432717
13.6942 25.937 402.58 0.704074 -0.530026 0.472601
13.5291 25.8859 402.706 0.667946 -0.519294 0.533087
13.3722 25.8219 402.888 0.68197 -0.549205 0.483001
13.211 25.7652 403.038 0.745886 -0.486816 0.454603
13.0537 25.6884 403.232 0.742063 -0.439738 0.505938
12.8941 25.6424 403.369 0.68171 -0.419051 0.599723
12.7342 25.583 403.535 0.663552 -0.485517 0.569185
12.5774 25.5221 403.71 0.677609 -0.523107 0.516919
12.4129 25.4837 403.826 0.591763 -0.429122 0.682401
12.2443 25.444 403.909 0.635248 -0.490587 0.596478
12.0898 25.3793 404.098 0.713332 -0.456973 0.53135
11.9254 25.3309 404.218 0.557994 -0.368421 0.743578
11.7528 25.3058 404.265 0.478154 -0.343813 0.808184
11.5937 25.2515 404.421 0.742759 -0.38798 0.545693
11.4457 25.1679 404.661 0.724791 -0.449111 0.522471
11.2745 25.14 404.723 0.423933 -0.44381 0.789502
11.1025 25.1186 404.769 0.372477 -0.493798 0.785763
10.9409 25.063 404.907 0.530242 -0.594013 0.604973
10.7741 25.0304 404.991 0.544509 -0.617415 0.567722
10.6095 24.9909 405.101 0.422313 -0.642719 0.63919
10.4402 24.9611 405.171 0.300804 -0.761259 0.574457
10.2609 24.9463 405.194 0.387183 -0.777002 0.496343
10.1121 24.8823 405.37 0.476916 -0.719865 0.504327
9.93471 24.8664 405.397 0.625354 -0.597379 0.502066
9.7785 24.8076 405.567 0.605685 -0.416108 0.678233
9.60569 24.7818 405.61 0.299307 -0.360268 0.883528
9.43577 24.7577 405.673 0.252037 -0.455965 0.853565
9.26119 24.7414 405.701 0.269767 -0.545209 0.793709
9.09204 24.7152 405.773 0.336376 -0.559125 0.75778
8.92311 24.6754 405.85 0.444408 -0.594783 0.669877
8.75919 24.6376 405.939 0.398643 -0.671455 0.624685
8.58286 24.623 405.961 0.366157 -0.632663 0.682398
8.42234 24.5801 406.089 0.368857 -0.582126 0.72462
8.2465 24.5656 406.111 0.351045 -0.566765 0.745348
8.07954 24.5342 406.187 0.325963 -0.504844 0.7993
7.9056 24.5162 406.221 0.227442 -0.49798 0.836831
7.73332 24.4937 406.265 0.292644 -0.524016 0.799854
7.55937 24.4766 406.296 0.205927 -0.5102 0.835039
7.38463 24.4615 406.321 0.210548 -0.54658 0.810506
7.21588 24.4365 406.388 0.279553 -0.618248 0.734588
7.04328 24.4134 406.432 0.249777 -0.588719 0.768779
6.86846 24.3971 406.454 0.17762 -0.541464 0.821747
6.69381 24.3813 406.48 0.181637 -0.578302 0.795345
6.52489 24.3529 406.546 0.220425 -0.657469 0.720518
6.34962 24.3387 406.567 0.130497 -0.696092 0.705993
6.17119 24.3315 406.566 0.112587 -0.651712 0.750063
5.99602 24.3173 406.587 0.161819 -0.610824 0.775054
5.82253 24.2989 406.622 0.164807 -0.656666 0.735954
5.64726 24.2847 406.643 0.0997901 -0.678692 0.727612
5.46697 24.2826 406.63 0.0453763 -0.599843 0.79883
5.28891 24.2759 406.633 -0.0407448 -0.53477 0.844015
5.10774 24.2717 406.613 -0.00504932 -0.577391 0.816452
4.93237 24.2576 406.634 0.0458825 -0.632092 0.773534
4.74846 24.2618 406.597 0.115062 -0.667223 0.735917
4.57759 24.24 406.65 0.194305 -0.677526 0.709369
4.40243 24.2235 406.67 0.00463124 -0.680055 0.733146
4.22687 24.2096 406.691 -0.0869063 -0.682084 0.726091
4.0409 24.2123 406.637 0.112049 -0.687195 0.71778
3.86997 24.1949 406.69 0.218874 -0.656685 0.721705
3.69446 24.1807 406.711 0.0623164 -0.664568 0.744625
3.51191 24.1816 406.685 0.0466381 -0.668638 0.742124
3.33605 24.168 406.704 0.0733199 -0.605208 0.792684
3.15855 24.1608 406.711 0.0406862 -0.57373 0.818033
2.98286 24.1467 406.731 -0.000221577 -0.609626 0.792689
2.79718 24.1503 406.68 -0.0339624 -0.601624 0.798057
2.61717 24.1487 406.676 -0.105138 -0.536604 0.837259
2.43821 24.1404 406.673 -0.0518341 -0.600598 0.79787
2.2627 24.1272 406.691 0.00125819 -0.701153 0.71301
2.07898 24.1265 406.656 -0.0572603 -0.70834 0.703545
1.89457 24.1324 406.627 -0.0851469 -0.676211 0.731771
1.71279 24.1324 406.603 -0.0361612 -0.627236 0.777989
1.53716 24.1156 406.633 -0.108634 -0.632418 0.766972
1.34604 24.1377 406.542 -0.194285 -0.677599 0.709305
0.416794 24.1654 406.335 -0.0913796 -0.489221 0.867359
0.23665 24.1606 406.324 -0.322595 -0.504262 0.801032
0.0431705 24.1808 406.237 -0.366749 -0.609415 0.702929
-0.152318 24.206 406.138 -0.234576 -0.633474 0.737349
-0.339724 24.2117 406.084 -0.111991 -0.550197 0.827491
-0.516734 24.2043 406.102 -0.092754 -0.526678 0.844989
-0.701678 24.2036 406.07 -0.174846 -0.551964 0.815331
-0.887766 24.2097 406.025 -0.251717 -0.566071 0.784986
-1.07719 24.222 405.964 -0.23848 -0.654135 0.717798
-1.26122 24.2237 405.938 -0.270693 -0.666897 0.694243
-1.45855 24.2503 405.83 -0.198549 -0.663106 0.721712
-1.64156 24.2488 405.807 -0.194751 -0.574559 0.794955
-1.82825 24.2506 405.763 -0.248056 -0.523945 0.814831
-2.0123 24.252 405.737 -0.346709 -0.586076 0.73233
-2.20756 24.275 405.642 -0.305628 -0.642039 0.70312
-2.40209 24.2994 405.567 -0.274257 -0.618899 0.736035
-2.59221 24.3162 405.489 -0.33128 -0.591633 0.734999
-2.78449 24.3253 405.423 -0.364281 -0.560157 0.743992
-2.98284 24.3536 405.323 -0.453683 -0.513201 0.728558
-3.17151 24.3605 405.261 -0.404114 -0.603295 0.687552
-3.37215 24.3962 405.15 -0.293237 -0.688578 0.663229
-3.56568 24.4098 405.062 -0.173495 -0.689509 0.70319
-3.75203 24.4135 405.027 -0.184363 -0.612325 0.768809
-3.93598 24.4116 405.006 -0.381505 -0.606431 0.697636
-4.13342 24.4345 404.907 -0.524129 -0.574319 0.628845
-4.33851 24.4809 404.77 -0.459313 -0.677344 0.574662
-4.54627 24.5184 404.595 -0.42069 -0.672719 0.608662
-4.73419 24.521 404.564 -0.485018 -0.575421 0.658519
-4.9523 24.5817 404.347 -0.396258 -0.686046 0.61018
-5.13718 24.5821 404.332 -0.486152 -0.666911 0.5647
-5.33725 24.6072 404.19 -0.556364 -0.687071 0.467326
-5.56769 24.6907 403.934 -0.439045 -0.753071 0.490024
-5.7575 24.6985 403.88 -0.333722 -0.740492 0.583354
-5.96378 24.7382 403.737 -0.461165 -0.654179 0.59948
-6.16016 24.7556 403.651 -0.604147 -0.579443 0.547039
-6.38165 24.8185 403.407 -0.580713 -0.647764 0.493126
-6.58202 24.8456 403.317 -0.522007 -0.726459 0.446952
-6.81405 24.9318 403.027 -0.70261 -0.601611 0.380005
-7.06706 25.0455 402.633 -0.647576 -0.666123 0.370034
-7.26863 25.0786 402.525 -0.475679 -0.740495 0.474759
-7.48405 25.1227 402.337 -0.710079 -0.476838 0.518087
-7.71528 25.1957 402.021 -0.770144 -0.476589 0.42396
-7.96938 25.3194 401.664 -0.734519 -0.568948 0.369838
-8.20183 25.3987 401.39 -0.731991 -0.587711 0.34465
-8.43543 25.4793 401.107 -0.638347 -0.708413 0.301106
14.021 26.1892 402.434 0.716096 -0.55515 0.423101
13.8547 26.1333 402.553 0.682665 -0.523114 0.510216
13.696 26.0804 402.713 0.676727 -0.533609 0.50725
13.5375 26.0131 402.892 0.681465 -0.571997 0.456535
13.3796 25.9564 403.059 0.665312 -0.56075 0.492869
13.2143 25.9132 403.172 0.697396 -0.548177 0.461673
13.0592 25.8378 403.377 0.693299 -0.514231 0.504879
12.8925 25.8035 403.476 0.702627 -0.49702 0.509202
12.7451 25.7146 403.726 0.682522 -0.531492 0.501677
12.5703 25.6863 403.761 0.575418 -0.468595 0.670308
12.4062 25.6462 403.884 0.645581 -0.49956 0.577637
12.2555 25.5657 404.113 0.627402 -0.567308 0.533412
12.0829 25.545 404.156 0.602164 -0.463949 0.64973
11.9198 25.4967 404.284 0.516298 -0.38825 0.763347
11.7514 25.4676 404.366 0.60429 -0.456234 0.653211
11.5986 25.3975 404.563 0.766578 -0.40562 0.497826
11.4372 25.3388 404.71 0.654027 -0.371644 0.658885
11.2691 25.3079 404.79 0.462461 -0.410462 0.785908
11.1088 25.2545 404.929 0.538197 -0.509274 0.671553
10.9401 25.2203 405.013 0.57012 -0.568378 0.59322
10.7817 25.1616 405.164 0.525747 -0.60571 0.597248
10.6129 25.1324 405.237 0.557832 -0.543543 0.627204
10.4617 25.0679 405.423 0.416143 -0.606243 0.677713
10.2827 25.0532 405.445 0.368091 -0.70645 0.604514
10.1129 25.0346 405.499 0.432472 -0.603268 0.670101
9.94236 25.0111 405.559 0.450129 -0.520122 0.725849
9.77159 24.9749 405.62 0.499395 -0.469558 0.728093
9.60342 24.9403 405.7 0.387886 -0.435726 0.812211
9.43568 24.9098 405.778 0.355455 -0.471339 0.807151
9.26702 24.8795 405.85 0.304393 -0.498318 0.811803
9.09297 24.8621 405.881 0.419476 -0.547512 0.724065
8.92858 24.82 405.999 0.513794 -0.621533 0.591364
8.76896 24.7737 406.112 0.327139 -0.703427 0.631007
8.59009 24.7639 406.119 0.296976 -0.686396 0.663827
8.41958 24.7406 406.174 0.343664 -0.597655 0.724365
8.24568 24.7197 406.208 0.273311 -0.548267 0.790383
8.07399 24.6988 406.254 0.297327 -0.562899 0.771194
7.90148 24.6786 406.297 0.265369 -0.569234 0.778172
7.73071 24.6555 406.351 0.258124 -0.603055 0.754782
7.55781 24.6343 406.391 0.246616 -0.606184 0.756123
7.38813 24.6052 406.454 0.310192 -0.604847 0.733445
7.21854 24.5798 406.511 0.23458 -0.61592 0.752074
